-10.49780 -2.91563 -0.92750
-10.72780 -2.64563 -0.84750
-10.90780 -2.50563 -0.71750
-10.82780 -1.99563 -0.65750
-11.19780 -1.78563 -0.97750
-10.77780 -1.60563 -0.79750
-10.51780 -1.43563 -0.79750
-5.38780 -6.13563 -0.85750
-5.23780 -5.96563 -0.74750
-4.79780 -5.84563 -0.65750
-4.61780 -5.74563 -0.58750
-4.58780 -6.45563 -0.75750
-4.42780 -6.49563 -0.81750
-4.27780 -6.33563 -0.72750
-3.93780 -6.97563 -0.83750
-3.90780 -5.73563 -0.44750
-3.87780 -6.03563 -0.55750
-3.67780 -6.64563 -0.60750
-3.62780 -6.11563 -0.58750
-3.47780 -6.84563 -0.71750
-3.35780 -7.50563 -0.89750
-3.27780 -6.72563 -0.65750
-3.02780 -7.15563 -0.75750
-2.97780 -5.92563 -0.29750
-2.94780 -6.22563 -0.38750
-2.79780 -7.66563 -0.78750
-2.76780 -6.82563 -0.59750
-2.63780 -6.48563 -0.49750
-2.53780 -7.20563 -0.63750
-2.52780 -8.10563 -0.95750
-2.39780 -7.87563 -0.85750
-2.29780 -7.10563 -0.57750
-2.12780 -7.34563 -0.60750
-2.10780 -5.98563 -0.19750
-2.05780 -6.11563 -0.22750
-2.02780 -6.40563 -0.26750
-1.87780 -7.85563 -0.66750
-1.85780 -7.01563 -0.37750
-1.62780 -6.85563 -0.39750
-1.60780 -8.29563 -0.79750
-1.57780 -7.56563 -0.59750
-1.44780 -8.24563 -0.74750
-1.31780 -7.47563 -0.52750
-1.21780 -7.52563 -0.50750
-1.16780 -8.90563 -0.88750
-1.14780 -6.35563 -0.13750
-1.13780 -6.29563 -0.11750
-1.10780 -6.59563 -0.21750
-0.94780 -8.04563 -0.60750
-0.93780 -7.20563 -0.33750
-0.69780 -8.47563 -0.67750
-0.62780 -7.91563 -0.53750
-0.61780 -9.34563 -0.98750
-0.61780 -7.23563 -0.30750
-0.53780 -5.76563 0.09250
-0.49780 -8.61563 -0.68750
-0.48780 -9.08563 -0.69750
-0.44780 -6.04563 0.07250
-0.33780 -7.85563 -0.44750
-0.30780 -7.70563 -0.38750
-0.30780 -5.85563 0.15250
-0.21780 -6.49563 0.04250
-0.20780 -6.72563 -0.06750
-0.17780 -6.77563 -0.15750
-0.17780 -9.27563 -0.75750
-0.02780 -7.39563 -0.17750
-0.01780 -8.23563 -0.45750
0.22220 -8.66563 -0.53750
0.29220 -9.53563 -0.79750
0.32220 -8.26563 -0.44750
0.36220 -7.60563 -0.26750
0.42220 -6.12563 0.16250
0.43220 -9.27563 -0.61750
0.46220 -8.98563 -0.62750
0.55220 -6.42563 0.08250
0.60220 -7.88563 -0.32750
0.61220 -6.04563 0.22250
0.64220 -8.23563 -0.36750
0.69220 -6.67563 0.12250
0.74220 -6.96563 0.02250
0.75220 -7.09563 -0.05750
0.82220 -9.65563 -0.67750
0.88220 -7.57563 -0.09750
0.89220 -8.42563 -0.33750
1.06220 -10.24563 -0.79750
1.13220 -8.84563 -0.44750
1.16220 -5.81563 0.47250
1.20220 -9.71563 -0.68750
1.28220 -8.63563 -0.38750
1.33220 -10.41563 -0.88750
1.34220 -9.46563 -0.52750
1.37220 -6.47563 0.25250
1.38220 -7.97563 -0.11750
1.41220 -9.34563 -0.58750
1.50220 -8.07563 -0.06750
1.51220 -5.90563 0.30250
1.52220 -6.22563 0.33250
1.54220 -6.80563 0.16250
1.62220 -6.86563 0.19250
1.63220 -8.61563 -0.27750
1.66220 -7.15563 0.08250
1.72220 -7.46563 0.00250
1.77220 -10.79563 -0.87750
1.80220 -7.75563 -0.05750
1.82220 -8.61563 -0.20750
1.82220 -10.02563 -0.59750
1.99220 -10.44563 -0.65750
2.05220 -9.03563 -0.39750
2.08220 -5.97563 0.11250
2.11220 -9.89563 -0.54750
2.23220 -8.98563 -0.40750
2.25220 -5.72563 0.19250
2.27220 -9.64563 -0.49750
2.30220 -10.77563 -0.78750
2.31220 -6.83563 -0.05750
2.35220 -9.71563 -0.51750
2.35220 -8.34563 -0.33750
2.42220 -8.24563 -0.33750
2.43220 -6.39563 -0.02750
2.47220 -6.27563 -0.04750
2.48220 -7.16563 -0.10750
2.55220 -7.02563 -0.15750
2.58220 -7.32563 -0.19750
2.58220 -8.97563 -0.49750
2.63220 -7.81563 -0.32750
2.69220 -10.97563 -0.94750
2.73220 -7.92563 -0.40750
2.75220 -8.78563 -0.52750
2.78220 -10.39563 -0.85750
2.91220 -10.60563 -0.90750
2.97220 -9.21563 -0.69750
3.02220 -6.14563 -0.13750
3.03220 -10.07563 -0.79750
3.14220 -9.33563 -0.70750
3.17220 -6.07563 -0.11750
3.20220 -9.81563 -0.80750
3.25220 -7.19563 -0.33750
3.28220 -10.06563 -0.90750
3.31220 -8.71563 -0.65750
3.33220 -8.42563 -0.65750
3.34220 -6.57563 -0.28750
3.43220 -7.52563 -0.43750
3.44220 -6.64563 -0.40750
3.48220 -7.19563 -0.40750
3.51220 -7.50563 -0.58750
3.54220 -9.34563 -0.77750
3.57220 -8.16563 -0.61750
3.65220 -8.08563 -0.70750
3.68220 -8.95563 -0.80750
3.69220 -9.62563 -4.74750
3.89220 -9.01563 -4.84750
3.94220 -6.31563 -0.43750
4.10220 -6.42563 -0.43750
4.16220 -7.54563 -0.69750
4.24220 -5.87563 -0.44750
4.25220 -8.59563 -0.93750
4.26220 -6.75563 -0.57750
4.38220 -7.88563 -0.78750
4.38220 -7.00563 -0.72750
4.40220 -7.36563 -0.75750
4.40220 -5.85563 -0.50750
4.44220 -7.68563 -0.81750
4.48220 -5.74563 -0.40750
4.74220 -7.84563 -4.78750
4.87220 -6.47563 -0.70750
4.99220 -7.31563 -4.80750
5.03220 -6.78563 -0.74750
5.17220 -6.05563 -0.72750
5.18220 -6.92563 -0.90750
5.32220 -6.21563 -0.78750
5.42220 -6.10563 -0.81750
-10.30780 -2.23563 -0.58750
-10.19780 -2.15563 -0.59750
-10.17780 -0.38563 -0.88750
-10.17780 -0.91563 -0.83750
-9.98780 -0.46563 -0.88750
-9.97780 -2.69563 -0.62750
-9.96780 -1.27563 -0.68750
-9.92780 -2.17563 -0.53750
-9.85780 -1.80563 -0.52750
-9.76780 -3.01563 -0.75750
-9.63780 -0.91563 -0.59750
-9.56780 -3.10563 -0.78750
-9.47780 -1.81563 -0.39750
-9.30780 -2.62563 -0.53750
-9.26780 -0.56563 -0.58750
-9.26780 -0.46563 -0.62750
-9.23780 -2.51563 -0.53750
-9.19780 -1.29563 -0.47750
-9.05780 -2.87563 -0.58750
-9.03780 -1.46563 -0.32750
-9.01780 -2.35563 -0.45750
-9.00780 -0.82563 -0.54750
-8.93780 -1.99563 -0.23750
-8.90780 -3.76563 -0.73750
-8.80780 -3.38563 -0.73750
-8.71780 -1.11563 -0.33750
-8.64780 -3.29563 -0.65750
-8.47780 -2.18563 -0.24750
-8.46780 -4.21563 -0.91750
-8.36780 -0.75563 -0.27750
-8.31780 -3.00563 -0.46750
-8.30780 -0.31563 -0.36750
-8.27780 -2.87563 -0.51750
-8.27780 -0.44563 -0.36750
-8.24780 -0.86563 -0.21750
-8.21780 -1.68563 -0.16750
-8.13780 -3.07563 -0.37750
-8.10780 -2.54563 -0.36750
-8.10780 -1.65563 -0.05750
-8.01780 -2.18563 -0.17750
-8.00780 -1.19563 -0.19750
-7.98780 -3.94563 -0.65750
-7.85780 -3.76563 -0.64750
-7.80780 -1.31563 -0.01750
-7.71780 -3.47563 -0.59750
-7.62780 -4.62563 -0.86750
-7.56780 -4.40563 -0.74750
-7.46780 -2.55563 -0.20750
-7.45780 -0.93563 0.00250
-7.38780 -0.51563 -0.03750
-7.33780 -3.38563 -0.45750
-7.30780 -3.23563 -0.38750
-7.26780 -2.05563 -0.07750
-7.23780 -0.83563 0.02250
-7.22780 -1.26563 0.11250
-7.21780 -3.26563 -0.28750
-7.19780 -2.72563 -0.25750
-7.17780 -1.84563 0.00250
-7.09780 -2.37563 -0.05750
-7.07780 -4.13563 -0.53750
-7.01780 -1.56563 0.16250
-6.90780 -4.12563 -0.57750
-6.87780 -1.51563 0.25250
-6.80780 -3.66563 -0.43750
-6.66780 -5.16563 -0.76750
-6.66780 -4.58563 -0.68750
-6.64780 -5.47563 -0.85750
-6.62780 -4.99563 -0.75750
-6.55780 -1.12563 0.34250
-6.47780 -0.70563 0.20250
-6.44780 -2.93563 -0.07750
-6.34780 -3.76563 -0.37750
-6.33780 -3.59563 -0.34750
-6.31780 -2.41563 -0.00750
-6.28780 -3.44563 -0.21750
-6.28780 -2.90563 -0.12750
-6.25780 -2.03563 0.15250
-6.24780 -1.64563 0.23250
-6.23780 -5.58563 -0.83750
-6.19780 -1.21563 0.36250
-6.16780 -2.56563 0.07250
-6.15780 -4.32563 -0.40750
-6.05780 -1.92563 0.21250
-6.02780 -0.41563 0.21250
-5.95780 -1.70563 0.35250
-5.93780 -4.50563 -0.49750
-5.87780 -3.85563 -0.30750
-5.75780 -4.76563 -0.50750
-5.74780 -5.35563 -0.66750
-5.71780 -5.65563 -0.80750
-5.64780 -1.30563 0.41250
-5.62780 -5.36563 -0.71750
-5.56780 -0.90563 0.58250
-5.52780 -0.40563 0.45250
-5.45780 -3.30563 -0.02750
-5.38780 -3.95563 -0.26750
-5.37780 -3.09563 0.01250
-5.36780 -3.63563 -0.09750
-5.35780 -4.14563 -0.28750
-5.34780 -2.79563 0.09250
-5.31780 -2.22563 0.21250
-5.25780 -2.75563 0.23250
-5.25780 -2.02563 0.33250
-5.24780 -4.50563 -0.32750
-5.20780 -1.58563 0.45250
-5.09780 -2.27563 0.24250
-5.04780 -1.88563 0.43250
-5.04780 -0.79563 0.60250
-4.97780 -4.87563 -0.44750
-4.95780 -4.04563 -0.20750
-4.84780 -4.94563 -0.38750
-4.82780 -5.54563 -0.54750
-4.74780 -1.48563 0.59250
-4.68780 -0.36563 0.64250
-4.67780 -0.34563 0.58250
-4.64780 -1.09563 0.75250
-4.59780 -0.59563 0.80250
-4.46780 -3.27563 0.02250
-4.44780 -3.82563 0.03250
-4.44780 -3.68563 0.09250
-4.40780 -4.31563 -0.16750
-4.39780 -3.16563 0.14250
-4.38780 -2.41563 0.40250
-4.36780 -4.52563 -0.23750
-4.33780 -4.69563 -0.17750
-4.32780 -2.93563 0.26250
-4.25780 -2.41563 0.39250
-4.18780 -1.95563 0.51250
-4.12780 -2.07563 0.53250
-4.12780 -2.64563 0.32250
-4.07780 -1.17563 0.77250
-4.04780 -4.22563 -0.06750
-4.02780 -5.24563 -0.37750
-3.93780 -5.12563 -0.30750
-3.83780 -1.66563 0.60250
-3.73780 -1.28563 0.85250
-3.68780 -0.75563 0.97250
-3.68780 -0.71563 0.96250
-3.66780 -0.78563 0.97250
-3.56780 -3.45563 0.16250
-3.52780 -4.01563 0.14250
-3.46780 -2.59563 0.45250
-3.44780 -3.52563 0.20250
-3.44780 -4.05563 0.12250
-3.43780 -4.68563 -0.09750
-3.42780 -0.45563 1.06250
-3.41780 -4.88563 -0.06750
-3.39780 -3.13563 0.44250
-3.39780 -4.90563 -0.14750
-3.28780 -2.78563 0.45250
-3.20780 -2.26563 0.64250
-3.18780 -2.33563 0.63250
-3.15780 -3.00563 0.39250
-3.13780 -1.53563 0.83250
-3.11780 -4.41563 0.06250
-3.06780 -5.61563 -0.28750
-3.02780 -5.31563 -0.23750
-2.93780 -1.85563 0.77250
-2.81780 -1.47563 0.96250
-2.73780 -0.97563 1.07250
-2.71780 -1.07563 0.99250
-2.70780 -1.13563 1.04250
-2.65780 -3.63563 0.27250
-2.60780 -4.20563 0.24250
-2.53780 -2.78563 0.61250
-2.51780 -0.65563 1.26250
-2.50780 -5.06563 0.05250
-2.47780 -3.90563 0.32250
-2.47780 -5.03563 -0.00750
-2.46780 -3.31563 0.51250
-2.45780 -4.42563 0.17250
-2.40780 -5.28563 -0.10750
-2.29780 -3.16563 0.54250
-2.28780 -2.45563 0.79250
-2.19780 -4.59563 0.15250
-2.19780 -1.90563 0.88250
-2.19780 -3.36563 0.51250
-2.19780 -2.70563 0.70250
-2.11780 -5.49563 -0.08750
-2.10780 -0.62563 1.33250
-2.02780 -2.03563 0.89250
-2.02780 -0.27563 1.47250
-1.90780 -1.65563 1.09250
-1.80780 -1.15563 1.19250
-1.75780 -1.43563 1.11250
-1.74780 -3.81563 0.44250
-1.72780 -1.51563 1.08250
-1.68780 -4.39563 0.36250
-1.60780 -0.83563 1.38250
-1.60780 -2.97563 0.65250
-1.58780 -5.25563 0.13250
-1.54780 -3.50563 0.61250
-1.52780 -4.27563 0.35250
-1.50780 -5.40563 0.06250
-1.45780 -4.79563 0.26250
-1.41780 -5.67563 -0.00750
-1.37780 -2.64563 0.90250
-1.30780 -3.54563 0.61250
-1.27780 -4.78563 0.28250
-1.23780 -2.27563 0.93250
-1.23780 -3.71563 0.53250
-1.21780 -5.67563 0.02250
-1.19780 -3.07563 0.76250
-1.17780 -0.51563 1.45250
-1.12780 -0.99563 1.34250
-1.11780 -2.21563 1.03250
-1.11780 -0.45563 1.52250
-0.98780 -1.84563 1.21250
-0.87780 -1.34563 1.32250
-0.83780 -4.00563 0.55250
-0.81780 -1.78563 1.15250
-0.76780 -4.58563 0.48250
-0.73780 -1.89563 1.18250
-0.69780 -1.02563 1.50250
-0.67780 -5.43563 0.25250
-0.67780 -3.16563 0.89250
-0.61780 -3.69563 0.75250
-0.57780 -4.64563 0.41250
-0.45780 -2.83563 1.02250
-0.45780 -5.16563 0.30250
-0.36780 -4.96563 0.34250
-0.32780 -3.92563 0.68250
-0.27780 -2.64563 0.99250
-0.26780 -4.08563 0.61250
-0.21780 -0.88563 1.53250
-0.20780 -2.39563 1.13250
-0.20780 -0.64563 1.69250
-0.19780 -3.44563 0.79250
-0.11780 -1.36563 1.46250
-0.06780 -2.03563 1.30250
0.06220 -1.53563 1.46250
0.07220 -4.18563 0.66250
0.15220 -4.77563 0.60250
0.16220 -2.15563 1.26250
0.22220 -1.21563 1.56250
0.23220 -3.34563 0.93250
0.24220 -2.27563 1.26250
0.25220 -5.62563 0.35250
0.30220 -3.88563 0.84250
0.36220 -5.00563 0.48250
0.40220 -0.28563 1.67250
0.46220 -3.02563 1.12250
0.54220 -5.54563 0.43250
0.56220 -5.15563 0.46250
0.64220 -4.30563 0.75250
0.65220 -0.45563 1.57250
0.67220 -3.00563 1.10250
0.69220 -2.57563 1.20250
0.69220 -4.44563 0.70250
0.70220 -0.81563 1.44250
0.72220 -1.24563 1.43250
0.81220 -3.81563 0.90250
0.85220 -2.20563 1.14250
0.85220 -1.73563 1.25250
0.89220 -0.59563 1.46250
0.98220 -4.36563 0.80250
0.98220 -1.71563 1.19250
1.07220 -4.95563 0.67250
1.10220 -2.50563 1.08250
1.14220 -1.37563 1.23250
1.17220 -3.53563 0.89250
1.19220 -2.63563 1.05250
1.23220 -4.06563 0.73250
1.32220 -5.37563 0.53250
1.33220 -0.45563 1.40250
1.39220 -3.19563 0.86250
1.48220 -5.33563 0.43250
1.58220 -0.80563 1.22250
1.59220 -3.36563 0.85250
1.61220 -2.75563 0.82250
1.61220 -0.99563 1.18250
1.61220 -4.79563 0.47250
1.62220 -4.67563 0.59250
1.62220 -1.59563 1.09250
1.74220 -4.17563 0.50250
1.76220 -0.30563 1.25250
1.77220 -2.37563 0.86250
1.80220 -2.09563 0.88250
1.81220 -0.94563 1.11250
1.90220 -4.54563 0.47250
1.92220 -1.89563 0.96250
1.99220 -5.12563 0.36250
2.01220 -2.85563 0.74250
2.06220 -1.54563 0.99250
2.10220 -3.70563 0.54250
2.15220 -2.99563 0.74250
2.17220 -4.23563 0.47250
2.26220 -0.61563 1.06250
2.31220 -3.35563 0.55250
2.40220 -5.51563 0.07250
2.52220 -2.92563 0.54250
2.52220 -1.16563 0.88250
2.52220 -3.71563 0.50250
2.54220 -1.17563 0.91250
2.55220 -5.15563 0.17250
2.56220 -1.94563 0.79250
2.57220 -5.03563 0.20250
2.70220 -2.53563 0.58250
2.70220 -0.66563 0.93250
2.72220 -4.54563 0.23250
2.73220 -1.29563 0.84250
2.75220 -2.45563 0.59250
2.81220 -4.72563 0.17250
2.82220 -0.39563 0.90250
2.85220 -2.07563 0.64250
2.93220 -5.29563 0.06250
2.94220 -3.21563 0.41250
2.98220 -1.71563 0.67250
3.03220 -3.89563 0.29250
3.10220 -3.35563 0.40250
3.11220 -4.39563 0.13250
3.19220 -0.78563 0.78250
3.24220 -3.52563 0.27250
3.32220 -5.69563 -0.15750
3.43220 -3.10563 0.30250
3.43220 -4.05563 0.13250
3.44220 -1.34563 0.62250
3.49220 -2.29563 0.49250
3.49220 -1.52563 0.58250
3.49220 -5.50563 -0.11750
3.51220 -5.38563 -0.13750
3.63220 -2.70563 0.33250
3.66220 -1.64563 0.48250
3.67220 -1.03563 0.57250
3.68220 -4.91563 -0.11750
3.71220 -2.82563 0.22250
3.73220 -4.89563 -0.13750
3.75220 -0.56563 0.57250
3.79220 -2.25563 0.32250
3.85220 -5.46563 -0.19750
3.86220 -3.56563 0.09250
3.91220 -1.88563 0.43250
3.95220 -4.06563 -0.00750
4.03220 -3.70563 0.04250
4.05220 -4.56563 -0.15750
4.13220 -0.95563 0.47250
4.16220 -3.69563 -0.04750
4.34220 -4.39563 -0.14750
4.35220 -3.28563 0.00250
4.35220 -1.51563 0.33250
4.40220 -2.64563 0.16250
4.43220 -1.88563 0.25250
4.56220 -2.87563 0.06250
4.59220 -2.00563 0.15250
4.60220 -0.56563 0.46250
4.63220 -5.27563 -0.42750
4.63220 -1.39563 0.24250
4.65220 -5.07563 -0.37750
4.67220 -3.19563 -0.10750
4.68220 -0.74563 0.31250
4.72220 -2.43563 0.05250
4.78220 -5.62563 -0.53750
4.79220 -3.92563 -0.15750
4.84220 -2.04563 0.05250
4.88220 -4.24563 -0.29750
4.98220 -4.73563 -0.39750
4.99220 -4.06563 -0.26750
5.06220 -1.11563 0.18250
5.08220 -3.85563 -0.28750
5.25220 -3.45563 -0.27750
5.26220 -1.69563 0.05250
5.27220 -4.75563 -0.48750
5.33220 -2.99563 -0.15750
5.38220 -2.23563 -0.07750
5.49220 -3.03563 -0.29750
5.51220 -0.34563 0.22250
5.51220 -0.90563 0.16250
5.51220 -2.35563 -0.13750
5.57220 -5.24563 -0.69750
5.58220 -1.75563 -0.11750
5.59220 -5.64563 -0.79750
-9.29780 -0.07563 -0.72750
-9.26780 0.36437 -0.74750
-9.25780 1.20437 -0.85750
-9.19780 -0.11563 -0.66750
-8.94780 0.73437 -0.76750
-8.90780 0.72437 -0.72750
-8.74780 1.66437 -0.82750
-8.74780 1.22437 -0.85750
-8.63780 1.10437 -0.79750
-8.34780 1.02437 -0.62750
-8.33780 0.17437 -0.43750
-8.27780 1.63437 -0.70750
-8.25780 1.85437 -0.71750
-8.20780 2.43437 -0.82750
-7.99780 0.52437 -0.37750
-7.99780 2.15437 -0.81750
-7.96780 0.35437 -0.46750
-7.94780 2.67437 -0.85750
-7.84780 1.46437 -0.53750
-7.81780 3.23437 -0.88750
-7.72780 0.82437 -0.49750
-7.65780 0.74437 -0.41750
-7.50780 3.51437 -0.80750
-7.45780 2.62437 -0.63750
-7.44780 0.83437 -0.26750
-7.40780 3.08437 -0.79750
-7.39780 -0.01563 -0.13750
-7.34780 2.65437 -0.72750
-7.33780 1.66437 -0.43750
-7.29780 2.24437 -0.57750
-7.29780 4.29437 -0.82750
-7.28780 4.13437 -0.91750
-7.25780 1.26437 -0.41750
-7.08780 0.33437 -0.07750
-7.02780 1.77437 -0.48750
-6.98780 -0.03563 -0.10750
-6.95780 2.31437 -0.51750
-6.92780 1.27437 -0.29750
-6.90780 3.03437 -0.61750
-6.84780 3.87437 -0.78750
-6.70780 0.42437 -0.14750
-6.65780 0.37437 -0.09750
-6.62780 4.19437 -0.80750
-6.57780 3.32437 -0.51750
-6.54780 2.44437 -0.36750
-6.53780 4.33437 -0.72750
-6.53780 0.64437 0.06250
-6.45780 -0.20563 0.14250
-6.40780 1.47437 -0.17750
-6.39780 4.11437 -0.56750
-6.38780 2.04437 -0.24750
-6.37780 3.93437 -0.57750
-6.36780 2.69437 -0.42750
-6.34780 5.05437 -0.71750
-6.32780 2.26437 -0.33750
-6.26780 4.83437 -0.78750
-6.21780 0.88437 -0.04750
-6.19780 5.68437 -0.87750
-6.18780 5.85437 -0.78750
-6.16780 0.13437 0.15250
-6.13780 4.76437 -0.64750
-6.08780 5.36437 -0.80750
-6.03780 1.39437 -0.11750
-6.00780 1.07437 0.02250
-5.99780 2.83437 -0.24750
-5.95780 1.94437 -0.16750
-5.86780 3.49437 -0.50750
-5.85780 5.84437 -0.85750
-5.70780 0.03437 0.21250
-5.65780 0.01437 0.27250
-5.64780 3.13437 -0.20750
-5.63780 0.46437 0.24250
-5.63780 2.25437 -0.01750
-5.62780 3.83437 -0.46750
-5.51780 3.93437 -0.37750
-5.49780 3.93437 -0.32750
-5.47780 1.27437 0.21250
-5.46780 1.84437 0.01250
-5.45780 3.73437 -0.32750
-5.41780 4.86437 -0.39750
-5.36780 6.25437 -0.76750
-5.33780 5.75437 -0.67750
-5.33780 1.87437 0.02250
-5.31780 2.31437 -0.00750
-5.29780 5.48437 -0.57750
-5.27780 5.66437 -0.51750
-5.25780 -0.06563 0.42250
-5.23780 4.46437 -0.44750
-5.21780 4.56437 -0.36750
-5.17780 0.50437 0.33250
-5.12780 7.44437 -0.91750
-5.11780 4.98437 -0.52750
-5.09780 0.87437 0.32250
-5.08780 7.15437 -0.87750
-5.08780 2.64437 0.04250
-5.07780 1.01437 0.22250
-4.97780 1.58437 0.16250
-4.96780 6.41437 -0.62750
-4.93780 6.51437 -0.66750
-4.89780 3.10437 -0.09750
-4.88780 7.38437 -0.77750
-4.86780 5.47437 -0.46750
-4.73780 0.27437 0.60250
-4.73780 2.07437 0.25250
-4.71780 2.93437 0.09250
-4.64780 3.47437 -0.07750
-4.59780 7.26437 -0.68750
-4.59780 3.74437 -0.00750
-4.58780 7.60437 -0.78750
-4.55780 1.64437 0.31250
-4.55780 1.09437 0.49250
-4.53780 3.53437 0.01250
-4.52780 3.55437 -0.01750
-4.48780 4.67437 -0.10750
-4.48780 7.92437 -0.81750
-4.37780 5.28437 -0.22750
-4.36780 5.48437 -0.29750
-4.34780 -0.26563 0.74250
-4.33780 5.36437 -0.33750
-4.31780 5.87437 -0.35750
-4.31780 1.47437 0.39250
-4.29780 1.94437 0.35250
-4.28780 4.36437 -0.03750
-4.27780 8.10437 -0.68750
-4.21780 4.08437 -0.03750
-4.18780 0.68437 0.60250
-4.17780 2.45437 0.24250
-4.16780 0.13437 0.70250
-4.15780 4.60437 -0.16750
-4.14780 8.07437 -0.66750
-4.12780 7.07437 -0.60750
-4.09780 6.77437 -0.48750
-4.08780 0.62437 0.59250
-4.05780 6.21437 -0.32750
-3.99780 6.31437 -0.32750
-3.98780 1.22437 0.53250
-3.97780 7.20437 -0.46750
-3.93780 8.93437 -0.74750
-3.93780 2.72437 0.24250
-3.87780 5.11437 -0.13750
-3.83780 0.09437 0.89250
-3.82780 1.88437 0.54250
-3.81780 8.99437 -0.85750
-3.80780 8.36437 -0.71750
-3.78780 2.74437 0.38250
-3.74780 8.97437 -0.72750
-3.70780 3.56437 0.28250
-3.68780 7.06437 -0.38750
-3.66780 3.10437 0.26250
-3.64780 1.44437 0.66250
-3.63780 0.89437 0.83250
-3.61780 8.85437 -0.74750
-3.61780 3.33437 0.33250
-3.57780 7.20437 -0.43750
-3.55780 4.48437 0.14250
-3.51780 3.15437 0.31250
-3.47780 5.09437 0.01250
-3.45780 5.29437 0.03250
-3.45780 7.54437 -0.44750
-3.36780 4.16437 0.21250
-3.35780 7.91437 -0.33750
-3.33780 9.77437 -0.71750
-3.32780 4.97437 0.08250
-3.31780 1.08437 0.74250
-3.29780 5.50437 -0.01750
-3.26780 0.48437 0.89250
-3.26780 2.25437 0.57250
-3.25780 1.56437 0.69250
-3.23780 7.88437 -0.40750
-3.20780 9.26437 -0.64750
-3.19780 3.71437 0.34250
-3.16780 4.21437 0.22250
-3.14780 6.02437 -0.06750
-3.13780 6.39437 -0.14750
-3.12780 6.71437 -0.22750
-3.12780 -0.25563 1.07250
-3.10780 0.23437 0.96250
-3.06780 7.01437 -0.12750
-3.06780 10.54437 -0.81750
-3.05780 6.12437 -0.02750
-3.04780 8.75437 -0.43750
-2.98780 0.85437 0.86250
-2.94780 2.34437 0.59250
-2.91780 -0.09563 1.19250
-2.91780 1.69437 0.86250
-2.90780 4.75437 0.20250
-2.85780 9.67437 -0.60750
-2.85780 2.55437 0.65250
-2.83780 7.98437 -0.33750
-2.81780 8.77437 -0.42750
-2.81780 8.60437 -0.47750
-2.80780 3.37437 0.58250
-2.77780 6.86437 -0.09750
-2.76780 10.06437 -0.72750
-2.73780 1.25437 0.92250
-2.72780 10.60437 -0.70750
-2.70780 3.13437 0.63250
-2.70780 0.71437 1.08250
-2.69780 10.74437 -0.73750
-2.66780 2.74437 0.63250
-2.63780 4.29437 0.47250
-2.62780 8.48437 -0.39750
-2.58780 6.82437 -0.14750
-2.57780 4.89437 0.32250
-2.54780 5.10437 0.37250
-2.51780 2.76437 0.64250
-2.44780 3.96437 0.54250
-2.43780 7.17437 -0.09750
-2.42780 7.72437 -0.14750
-2.41780 10.19437 -0.59750
-2.40780 9.58437 -0.34750
-2.35780 2.05437 0.87250
-2.34780 0.28437 1.25250
-2.33780 7.68437 -0.07750
-2.32780 4.57437 0.39250
-2.30780 0.69437 1.09250
-2.26780 5.11437 0.35250
-2.23780 5.82437 0.28250
-2.22780 1.18437 1.04250
-2.19780 3.83437 0.52250
-2.18780 8.89437 -0.27750
-2.17780 10.76437 -0.77750
-2.17780 3.34437 0.62250
-2.16780 6.83437 0.14250
-2.16780 10.35437 -0.57750
-2.15780 6.00437 0.17250
-2.13780 5.93437 0.31250
-2.13780 8.56437 -0.12750
-2.13780 6.34437 0.11250
-2.13780 -0.14563 1.29250
-1.99780 1.51437 1.12250
-1.99780 0.48437 1.22250
-1.97780 1.96437 0.93250
-1.95780 9.49437 -0.42750
-1.92780 2.36437 1.00250
-1.91780 4.39437 0.54250
-1.90780 3.19437 0.86250
-1.89780 8.58437 -0.19750
-1.85780 6.66437 0.23250
-1.84780 7.60437 0.02250
-1.82780 1.05437 1.24250
-1.81780 9.69437 -0.51750
-1.80780 10.42437 -0.78750
-1.79780 8.20437 -0.14750
-1.78780 2.93437 0.94250
-1.78780 0.52437 1.39250
-1.73780 10.37437 -0.69750
-1.71780 4.09437 0.81250
-1.68780 2.38437 0.93250
-1.66780 4.70437 0.63250
-1.64780 4.92437 0.61250
-1.64780 8.12437 -0.08750
-1.56780 6.42437 0.27250
-1.51780 3.76437 0.85250
-1.51780 2.37437 1.02250
-1.50780 7.53437 0.03250
-1.47780 9.39437 -0.40750
-1.45780 9.83437 -0.64750
-1.43780 0.08437 1.52250
-1.43780 1.85437 1.17250
-1.41780 7.49437 0.03250
-1.40780 6.79437 0.21250
-1.32780 5.62437 0.56250
-1.31780 0.30437 1.45250
-1.31780 4.18437 0.77250
-1.25780 6.64437 0.31250
-1.25780 10.18437 -0.69750
-1.24780 8.38437 -0.21750
-1.22780 4.74437 0.70250
-1.22780 3.45437 0.87250
-1.20780 5.74437 0.52250
-1.19780 0.80437 1.40250
-1.18780 5.62437 0.46250
-1.18780 8.51437 -0.37750
-1.17780 10.38437 -0.87750
-1.14780 2.96437 1.04250
-1.13780 5.98437 0.40250
-1.10780 1.32437 1.40250
-1.03780 9.31437 -0.61750
-1.01780 1.58437 1.26250
-1.00780 0.12437 1.58250
-0.99780 2.17437 1.31250
-0.99780 3.00437 1.16250
-0.96780 8.40437 -0.32750
-0.93780 6.48437 0.18250
-0.91780 0.85437 1.49250
-0.91780 4.02437 0.94250
-0.88780 10.24437 -0.84750
-0.88780 7.23437 0.03250
-0.87780 2.73437 1.23250
-0.86780 0.33437 1.67250
-0.85780 9.32437 -0.59750
-0.81780 7.82437 -0.17750
-0.78780 3.90437 1.03250
-0.75780 10.00437 -0.78750
-0.74780 4.51437 0.75250
-0.72780 4.73437 0.76250
-0.69780 7.76437 -0.20750
-0.69780 2.01437 1.36250
-0.59780 3.57437 0.95250
-0.58780 7.35437 -0.10750
-0.58780 6.04437 0.29250
-0.55780 9.21437 -0.54750
-0.53780 1.66437 1.48250
-0.52780 1.98437 1.37250
-0.51780 -0.11563 1.86250
-0.50780 9.47437 -0.74750
-0.49780 7.32437 -0.12750
-0.42780 6.42437 0.09250
-0.40780 5.45437 0.34250
-0.34780 6.47437 0.13250
-0.34780 8.21437 -0.30750
-0.34780 3.81437 0.86250
-0.30780 -0.09563 1.80250
-0.27780 3.08437 1.11250
-0.25780 5.55437 0.42250
-0.24780 5.26437 0.42250
-0.24780 4.37437 0.64250
-0.19780 8.14437 -0.43750
-0.18780 5.61437 0.33250
-0.18780 1.14437 1.66250
-0.18780 0.43437 1.74250
-0.17780 2.60437 1.09250
-0.11780 9.14437 -0.69750
-0.10780 2.83437 1.19250
-0.07780 1.98437 1.36250
-0.03780 8.22437 -0.47750
-0.03780 1.20437 1.54250
-0.03780 -0.23563 1.79250
-0.00780 6.30437 0.06250
-0.00780 0.66437 1.73250
0.01220 3.67437 0.83250
0.04220 2.55437 1.12250
0.05220 6.86437 -0.01750
0.05220 0.14437 1.85250
0.08220 8.96437 -0.69750
0.14220 7.46437 -0.27750
0.14220 3.72437 0.82250
0.16220 4.33437 0.60250
0.18220 4.56437 0.57250
0.24220 1.66437 1.39250
0.25220 7.41437 -0.26750
0.33220 3.40437 0.83250
0.35220 7.17437 -0.14750
0.37220 9.03437 -0.68750
0.37220 5.67437 0.14250
0.38220 1.48437 1.36250
0.42220 7.14437 -0.24750
0.44220 9.11437 -0.78750
0.44220 1.61437 1.33250
0.50220 5.28437 0.31250
0.54220 8.03437 -0.43750
0.54220 6.06437 0.01250
0.56220 6.29437 0.03250
0.63220 3.43437 0.80250
0.67220 5.37437 0.34250
0.67220 2.72437 1.04250
0.70220 4.90437 0.38250
0.72220 0.96437 1.54250
0.73220 4.00437 0.57250
0.75220 5.26437 0.23250
0.78220 7.78437 -0.48750
0.80220 8.96437 -0.80750
0.80220 2.65437 1.02250
0.80220 0.06437 1.61250
0.81220 2.23437 1.01250
0.85220 1.80437 1.22250
0.89220 8.05437 -0.57750
0.90220 0.83437 1.49250
0.91220 6.12437 -0.01750
0.91220 0.48437 1.61250
0.95220 3.32437 0.74250
0.96220 2.37437 1.09250
0.98220 -0.03563 1.49250
0.99220 6.51437 -0.09750
1.02220 8.60437 -0.69750
1.06220 3.54437 0.74250
1.07220 4.16437 0.48250
1.09220 4.38437 0.52250
1.12220 7.09437 -0.31750
1.19220 7.05437 -0.30750
1.19220 1.30437 1.29250
1.26220 3.22437 0.69250
1.27220 6.98437 -0.30750
1.29220 8.84437 -0.81750
1.31220 1.30437 1.25250
1.34220 6.97437 -0.35750
1.35220 5.30437 0.08250
1.37220 8.76437 -0.87750
1.42220 1.24437 1.29250
1.43220 5.10437 0.16250
1.45220 7.85437 -0.53750
1.46220 6.11437 -0.05750
1.54220 5.69437 -0.03750
1.60220 5.18437 0.24250
1.61220 2.36437 0.93250
1.61220 3.06437 0.72250
1.64220 4.53437 0.35250
1.64220 0.78437 1.49250
1.70220 2.47437 0.91250
1.72220 4.90437 0.18250
1.72220 3.63437 0.51250
1.77220 7.40437 -0.56750
1.79220 1.61437 1.17250
1.79220 1.86437 0.99250
1.81220 7.87437 -0.67750
1.83220 5.95437 -0.14750
1.83220 0.31437 1.37250
1.83220 0.48437 1.41250
1.89220 2.20437 0.93250
1.89220 -0.21563 1.26250
1.91220 2.96437 0.73250
1.94220 6.14437 -0.13750
1.97220 8.24437 -0.79750
1.99220 3.98437 0.37250
1.99220 3.36437 0.62250
2.00220 4.20437 0.41250
2.09220 6.71437 -0.36750
2.13220 0.95437 1.20250
2.15220 6.69437 -0.35750
2.19220 6.80437 -0.34750
2.20220 3.04437 0.61250
2.23220 1.13437 1.13250
2.26220 6.79437 -0.42750
2.33220 4.92437 0.07250
2.34220 7.68437 -0.63750
2.35220 4.93437 0.04250
2.36220 0.87437 1.18250
2.37220 5.93437 -0.18750
2.52220 5.32437 -0.08750
2.54220 5.00437 0.08250
2.54220 2.00437 0.90250
2.55220 0.60437 1.21250
2.56220 2.69437 0.71250
2.58220 4.18437 0.24250
2.61220 2.30437 0.81250
2.68220 4.54437 0.10250
2.71220 1.43437 1.06250
2.71220 3.26437 0.42250
2.74220 7.69437 -0.87750
2.75220 0.15437 1.07250
2.75220 0.13437 1.11250
2.76220 5.77437 -0.23750
2.76220 7.03437 -0.66750
2.76220 1.50437 0.90250
2.81220 2.02437 0.81250
2.84220 2.60437 0.61250
2.88220 5.78437 -0.22750
2.91220 3.81437 0.28250
2.92220 3.18437 0.49250
2.92220 4.02437 0.27250
3.06220 0.60437 1.04250
3.07220 6.34437 -0.47750
3.10220 6.33437 -0.47750
3.11220 6.62437 -0.47750
3.12220 2.86437 0.50250
3.15220 0.95437 1.03250
3.18220 6.62437 -0.52750
3.24220 7.50437 -0.73750
3.27220 4.75437 -0.06750
3.29220 5.75437 -0.29750
3.29220 4.55437 0.03250
3.33220 0.51437 0.99250
3.47220 0.43437 0.92250
3.48220 4.81437 -0.04750
3.49220 4.95437 -0.19750
3.49220 1.64437 0.85250
3.51220 2.12437 0.68250
3.51220 3.82437 0.16250
3.54220 2.32437 0.60250
3.62220 4.18437 0.05250
3.64220 1.25437 0.91250
3.67220 -0.01563 0.77250
3.68220 5.59437 -0.38750
3.68220 -0.21563 0.76250
3.68220 2.89437 0.34250
3.72220 1.85437 0.68250
3.73220 1.13437 0.88250
3.74220 6.67437 -0.72750
3.77220 2.25437 0.53250
3.82220 5.42437 -0.30750
3.82220 3.63437 0.14250
3.82220 3.84437 0.17250
3.84220 2.99437 0.37250
3.99220 0.24437 0.70250
4.03220 5.97437 -0.52750
4.04220 6.44437 -0.60750
4.04220 5.98437 -0.57750
4.05220 2.69437 0.34250
4.07220 0.78437 0.84250
4.10220 6.44437 -0.66750
4.20220 4.58437 -0.19750
4.20220 5.57437 -0.39750
4.27220 4.18437 -0.05750
4.28220 0.15437 0.67250
4.39220 0.25437 0.60250
4.40220 4.63437 -0.13750
4.41220 1.94437 0.57250
4.43220 1.27437 0.78250
4.46220 3.45437 0.09250
4.47220 4.59437 -0.24750
4.50220 1.95437 0.52250
4.57220 1.07437 0.70250
4.58220 3.82437 -0.05750
4.59220 -0.17563 0.47250
4.60220 5.42437 -0.49750
4.65220 1.67437 0.56250
4.68220 2.52437 0.27250
4.69220 0.77437 0.62250
4.72220 6.30437 -0.75750
4.72220 1.89437 0.46250
4.74220 3.46437 0.05250
4.74220 3.66437 0.04250
4.76220 2.81437 0.29250
4.77220 5.06437 -0.38750
4.91220 -0.10563 0.44250
4.97220 6.25437 -0.74750
4.99220 5.62437 -0.61750
4.99220 2.51437 0.27250
5.00220 5.60437 -0.63750
5.01220 0.61437 0.58250
5.02220 6.27437 -0.79750
5.11220 4.40437 -0.29750
5.11220 5.39437 -0.49750
5.21220 -0.19563 0.32250
5.24220 3.81437 -0.13750
5.30220 0.07437 0.33250
5.32220 1.76437 0.50250
5.34220 4.44437 -0.30750
5.35220 0.93437 0.52250
5.41220 3.09437 0.01250
5.46220 4.22437 -0.33750
5.47220 1.58437 0.49250
5.51220 0.89437 0.42250
5.52220 5.24437 -0.57750
5.54220 3.46437 -0.07750
5.57220 1.49437 0.45250
5.71220 -5.79563 -0.81750
6.20220 -5.10563 -0.77750
5.92220 -4.90563 -0.71750
6.63220 -4.62563 -0.86750
6.74220 -4.60563 -0.94750
5.82220 -4.43563 -0.58750
5.94220 -4.42563 -0.60750
5.69220 -4.26563 -0.58750
6.93220 -4.19563 -0.87750
6.01220 -4.02563 -0.63750
6.58220 -3.91563 -0.73750
7.08220 -3.80563 -0.85750
7.18220 -3.69563 -0.82750
6.18220 -3.63563 -0.60750
5.61220 -3.54563 -0.41750
7.35220 -3.37563 -0.85750
6.26220 -3.34563 -0.51750
6.42220 -3.20563 -0.57750
7.36220 -3.06563 -0.81750
7.52220 -2.98563 -0.85750
7.27220 -2.95563 -0.71750
6.59220 -2.80563 -0.53750
6.43220 -2.71563 -0.46750
5.65220 -2.62563 -0.25750
6.32220 -2.59563 -0.41750
7.60220 -2.54563 -0.75750
7.50220 -2.49563 -0.75750
6.68220 -2.37563 -0.50750
8.00220 -2.22563 -0.81750
5.75220 -2.21563 -0.19750
6.55220 -2.12563 -0.39750
7.10220 -2.04563 -0.57750
8.28220 -1.95563 -0.85750
6.17220 -1.86563 -0.26750
7.86220 -1.61563 -0.71750
7.37220 -1.61563 -0.49750
8.58220 -1.50563 -0.88750
8.37220 -1.46563 -0.87750
6.92220 -1.45563 -0.39750
5.99220 -1.28563 -0.10750
7.45220 -1.28563 -0.50750
6.44220 -1.26563 -0.16750
8.05220 -1.26563 -0.64750
7.66220 -1.15563 -0.54750
6.52220 -1.10563 -0.27750
9.19220 -1.00563 -1.01750
9.08220 -0.97563 -4.63750
5.60220 -0.92563 0.09250
7.10220 -0.90563 -0.35750
8.28220 -0.84563 -0.68750
6.73220 -0.80563 -0.24750
7.35220 -0.67563 -0.38750
8.49220 -0.67563 -0.68750
8.97220 -0.62563 -0.85750
6.16220 -0.55563 0.04250
6.43220 -0.51563 -0.07750
8.06220 -0.45563 -0.56750
9.01220 -0.45563 -0.77750
5.82220 -0.45563 0.06250
7.54220 -0.30563 -0.34750
7.14220 -0.27563 -0.24750
9.66220 -0.21563 -0.94750
8.10220 -0.10563 -0.46750
6.22220 -0.09563 -0.00750
8.72220 -0.04563 -0.64750
6.57220 0.05437 -0.04750
7.79220 0.12437 -0.36750
9.35220 0.13437 -0.80750
9.25220 0.15437 -0.72750
9.23220 0.17437 -0.81750
7.19220 0.23437 -0.10750
6.86220 0.28437 -0.01750
8.29220 0.35437 -0.45750
5.64220 0.41437 0.27250
5.93220 0.45437 0.24250
8.43220 0.48437 -0.48750
8.32220 0.51437 -0.43750
7.36220 0.53437 -0.17750
6.26220 0.58437 0.20250
10.19220 0.65437 -0.89750
9.53220 0.69437 -0.78750
6.43220 0.71437 0.12250
9.28220 0.82437 -0.65750
7.51220 0.84437 -0.16750
7.37220 0.86437 -0.09750
9.86220 0.89437 -0.89750
8.35220 0.99437 -0.31750
8.57220 1.05437 -0.46750
8.96220 1.06437 -0.57750
7.42220 1.16437 -0.10750
6.60220 1.19437 0.17250
6.41220 1.22437 0.24250
8.04220 1.24437 -0.19750
6.50220 1.32437 0.21250
10.06220 1.32437 -0.77750
7.14220 1.41437 0.02250
7.62220 1.41437 -0.06750
10.62220 1.46437 -0.91750
5.68220 1.54437 0.46250
6.23220 1.59437 0.34250
9.68220 1.63437 -0.61750
9.16220 1.66437 -0.41750
10.26220 1.67437 -0.78750
10.31220 1.72437 -0.79750
6.65220 1.78437 0.18250
8.74220 1.80437 -0.27750
9.39220 1.90437 -0.51750
7.79220 1.97437 -0.07750
10.06220 1.97437 -0.65750
8.23220 2.01437 -0.17750
9.35220 2.02437 -0.42750
10.96220 2.07437 -4.53750
8.46220 2.08437 -0.24750
6.86220 2.15437 0.06250
5.67220 2.15437 0.21250
11.13220 2.24437 -0.91750
7.53220 2.26437 -0.00750
5.93220 2.33437 0.13250
9.12220 2.33437 -0.43750
7.29220 2.37437 -0.10750
8.39220 2.38437 -0.34750
10.34220 2.39437 -0.70750
10.21220 2.41437 -0.62750
11.16220 2.41437 -0.93750
6.62220 2.44437 0.08250
9.31220 2.58437 -0.52750
10.24220 2.58437 -0.60750
5.69220 2.63437 0.16250
8.13220 2.71437 -0.39750
6.35220 2.73437 -0.00750
7.42220 2.75437 -0.27750
9.37220 2.75437 -0.64750
8.39220 2.76437 -0.38750
9.33220 2.76437 -0.51750
10.43220 2.89437 -0.80750
7.47220 2.93437 -0.28750
8.40220 2.94437 -0.37750
7.16220 3.07437 -0.29750
6.49220 3.10437 -0.17750
6.56220 3.11437 -0.17750
8.39220 3.11437 -0.52750
7.49220 3.12437 -0.26750
9.50220 3.24437 -0.68750
5.65220 3.28437 -0.03750
6.57220 3.30437 -0.16750
6.21220 3.44437 -0.19750
5.66220 3.48437 -0.05750
7.40220 3.49437 -0.46750
8.55220 3.61437 -0.63750
8.82220 3.69437 -0.72750
9.07220 3.71437 -0.70750
6.44220 3.85437 -0.37750
7.89220 3.87437 -0.63750
8.14220 3.89437 -0.66750
7.60220 3.97437 -0.61750
6.96220 4.05437 -0.55750
7.21220 4.07437 -0.45750
6.05220 4.23437 -0.44750
6.27220 4.26437 -0.44750
6.66220 4.33437 -0.50750
7.92220 4.49437 -0.82750
7.83220 4.55437 -0.81750
5.72220 4.69437 -0.43750
6.94220 4.86437 -0.77750
7.36220 4.89437 -0.87750
6.89220 4.90437 -0.75750
6.94220 5.04437 -0.76750
6.44220 5.06437 -0.72750
6.02220 5.22437 -0.63750
5.98220 5.23437 -0.67750
5.95220 5.26437 -0.66750
5.70220 5.93437 -0.89750
-2.44780 11.26437 -0.70750
