1.83498 -1.17045 0.68177
3.70498 -5.65045 0.16177
3.51498 -5.54045 0.10177
2.91498 -5.13045 0.24177
2.67498 -4.97045 0.14177
3.80498 -4.90045 0.15177
3.81498 -4.71045 0.06177
2.94498 -4.31045 0.31177
2.96498 -4.15045 0.28177
0.35498 2.63955 0.44177
-5.32502 -3.16045 0.36177
0.33498 -2.55045 0.61177
-2.49502 0.78955 0.87177
-3.98502 0.28955 0.23177
-4.72502 2.10955 0.61177
-5.02502 -2.94045 0.32177
-5.07502 -0.93045 0.55177
-4.84502 0.05955 0.60177
-4.91502 -3.87045 0.15177
-4.85502 0.89955 0.55177
-4.00502 -0.53045 0.29177
-4.39502 -2.22045 0.32177
-4.58502 -2.14045 0.42177
-4.52502 -1.26045 0.58177
-4.47502 -3.72045 0.33177
-4.06502 2.69955 0.16177
-4.21502 -0.43045 0.26177
-4.24502 4.53955 0.41177
-4.23502 -1.47045 0.68177
-4.07502 1.81955 0.60177
-4.19502 2.45955 0.42177
-4.15502 -3.51045 0.45177
-2.51502 2.43955 0.57177
-3.29502 1.30955 0.61177
-3.67502 4.56955 0.16177
-3.78502 0.30955 0.22177
-3.89502 1.53955 0.32177
-3.79502 -2.66045 0.41177
-3.68502 4.78955 -6.15823
-3.77502 5.33955 -0.12823
-3.72502 3.71955 0.34177
-3.30502 5.27955 -6.19823
-3.38502 3.95955 0.28177
-3.65502 -1.85045 0.44177
-3.57502 -2.75045 0.49177
-3.32502 1.86955 0.36177
-3.38502 -2.04045 0.51177
-3.32502 2.95955 0.33177
-2.52502 3.39955 0.36177
-2.94502 3.20955 0.49177
-3.12502 -0.27045 0.40177
-3.22502 2.15955 0.54177
-3.18502 -1.05045 0.57177
-2.95502 -0.23045 0.56177
-3.01502 -3.17045 0.56177
-2.95502 4.80955 0.08177
-2.53502 5.25955 0.00177
-2.73502 -3.31045 0.38177
-2.83502 4.00955 0.21177
-2.79502 -2.41045 0.61177
-2.54502 -2.59045 0.73177
-2.64502 -1.46045 0.50177
-2.56502 4.94955 -6.22823
0.24498 -1.16045 0.94177
-1.10502 5.09955 -6.04823
-1.71502 0.27955 0.98177
-2.15502 2.69955 0.54177
-2.35502 -1.60045 0.61177
-2.47502 4.86955 -4.28823
-2.38502 1.60955 0.68177
-2.21502 -3.70045 0.39177
-2.26502 -0.83045 0.55177
-2.24502 0.45955 0.56177
-1.86502 -1.96045 0.72177
-1.99502 3.45955 0.28177
-2.13502 4.25955 0.11177
-2.11502 -0.78045 0.53177
-1.90502 -3.88045 0.24177
-1.96502 4.77955 0.11177
-1.92502 -2.99045 0.53177
-1.16502 2.91955 0.48177
-1.67502 1.87955 0.62177
-1.70502 -3.15045 0.61177
-1.67502 4.68955 0.08177
-1.54502 1.06955 0.85177
-1.66502 2.82955 0.48177
-1.60502 0.76955 0.91177
-1.18502 4.26955 0.29177
-1.39502 -1.39045 0.79177
-1.52502 -2.13045 0.82177
-1.41502 -0.07045 0.83177
-1.28502 -1.32045 0.95177
-1.37502 2.17955 0.60177
-1.30502 3.71955 0.26177
0.19498 1.15955 0.89177
-0.47502 3.18955 0.39177
-0.80502 2.25955 0.54177
-0.92502 -0.24045 0.94177
-1.07502 -2.48045 0.73177
-1.05502 -3.58045 0.42177
-0.81502 4.12955 0.15177
-0.85502 1.34955 0.79177
-0.84502 -3.72045 0.40177
-0.53502 -1.96045 0.74177
-0.68502 4.75955 -5.96823
-0.74502 0.19955 0.99177
-0.70502 0.51955 0.98177
-0.58502 1.66955 0.66177
-0.68502 -2.71045 0.58177
-0.58502 -0.61045 1.04177
0.15498 -3.27045 0.43177
-0.13502 -0.75045 1.14177
-0.43502 -1.88045 0.86177
-0.40502 3.74955 0.25177
-0.27502 -3.01045 0.62177
-0.32502 2.36955 0.52177
-0.27502 4.56955 -5.85823
0.14498 -0.04045 1.00177
0.04498 3.56955 0.28177
-0.02502 0.80955 0.91177
-0.02502 4.52955 0.09177
0.12498 -0.36045 1.10177
0.05498 1.69955 0.67177
1.69498 4.20955 -7.38823
0.99498 -0.61045 0.84177
0.66498 -1.29045 0.90177
0.45498 4.54955 0.06177
0.38498 3.22955 0.25177
0.41498 -2.44045 0.76177
0.52498 -3.54045 0.48177
0.50498 4.88955 -6.20823
0.51498 1.81955 0.65177
0.99498 -0.97045 0.83177
0.87498 4.78955 -6.29823
0.80498 0.25955 0.89177
0.82498 3.96955 0.13177
0.98498 0.63955 0.81177
0.90498 2.99955 0.39177
0.91498 1.12955 0.74177
1.65498 3.41955 0.25177
1.26498 -3.01045 0.62177
1.17498 2.09955 0.56177
0.99498 -3.84045 0.33177
1.09498 -1.74045 0.79177
1.17498 2.71955 0.36177
1.20498 -3.14045 0.50177
1.64498 -0.32045 0.67177
1.35498 1.26955 0.64177
1.27498 4.00955 0.12177
1.33498 4.47955 -4.48823
1.46498 4.60955 0.05177
1.47498 -1.82045 0.75177
1.78498 0.10955 0.69177
1.78498 0.54955 0.69177
1.76498 2.42955 0.50177
2.26498 -2.35045 0.55177
2.25498 4.09955 0.09177
1.92498 -2.31045 0.55177
1.85498 -1.52045 1.07177
2.19498 0.70955 0.66177
2.06498 -3.72045 0.43177
1.96498 2.19955 0.49177
2.00498 1.54955 0.57177
2.11498 -3.58045 0.48177
2.10498 3.46955 0.23177
2.11498 4.31955 0.07177
5.05498 1.16955 -0.01823
3.61498 -2.76045 0.15177
2.98498 3.73955 0.13177
2.50498 2.85955 0.32177
2.36498 4.68955 -7.77823
2.48498 -0.89045 0.49177
2.64498 -0.04045 0.45177
2.57498 -0.42045 0.49177
2.63498 1.85955 0.49177
2.93498 2.91955 0.34177
2.74498 1.68955 0.48177
2.69498 -1.75045 0.39177
2.73498 -2.16045 0.40177
2.86498 4.32955 -7.64823
2.76498 -2.89045 0.31177
2.84498 0.98955 0.50177
3.54498 -2.32045 0.22177
3.31498 -1.46045 0.22177
3.05498 0.13955 0.40177
3.04498 3.57955 0.20177
3.17498 4.19955 -7.06823
3.07498 -2.89045 0.39177
3.54498 1.15955 0.35177
3.35498 2.30955 0.43177
3.37498 -0.95045 0.44177
3.51498 -0.63045 0.29177
3.46498 4.18955 0.11177
3.49498 1.25955 0.26177
3.88498 -3.43045 0.05177
3.77498 2.34955 0.17177
3.61498 -3.46045 0.14177
3.68498 0.40955 0.21177
3.87498 4.30955 0.11177
3.83498 3.05955 0.28177
3.84498 3.17955 0.30177
3.89498 -0.43045 0.21177
4.19498 1.74955 0.35177
4.16498 -2.03045 0.07177
4.17498 -1.48045 0.17177
4.52498 -0.16045 0.05177
4.36498 0.66955 0.14177
4.30498 3.63955 0.12177
4.34498 0.61955 0.09177
4.48498 -3.36045 -0.08823
4.38498 -1.23045 0.04177
4.40498 -2.89045 -0.00823
4.82498 3.99955 -6.32823
4.61498 1.77955 0.02177
4.63498 2.53955 0.27177
4.75498 -1.00045 -0.12823
4.71498 3.74955 0.03177
4.71498 2.57955 0.01177
5.16498 3.06955 -0.14823
0.60498 -5.57045 -0.11823
1.68498 -5.40045 0.18177
-1.55502 -5.28045 -0.03823
1.54498 -5.33045 0.08177
0.17498 -5.28045 0.21177
-3.25502 -4.98045 0.03177
-0.23502 -5.00045 0.08177
-2.78502 -4.84045 0.17177
-0.62502 -4.75045 0.23177
0.83498 -4.83045 0.27177
0.67498 -4.75045 0.20177
-4.45502 -4.61045 0.19177
-2.41502 -4.69045 0.08177
2.11498 -4.60045 0.32177
-1.07502 -4.44045 0.14177
1.83498 -4.41045 0.23177
-4.08502 -4.43045 0.04177
-3.62502 -4.28045 0.25177
-0.00502 -4.27045 0.36177
-0.19502 -4.17045 0.26177
-1.41502 -4.22045 0.34177
-3.28502 -4.10045 0.26177
-5.26502 -4.07045 0.58177
1.32498 -4.07045 0.41177
