-2.50523 -4.95803 -2.80841
-2.47523 -4.72803 -1.21841
-2.35523 -4.43803 -0.37841
-2.42523 -4.37803 -0.73841
-2.35523 -4.34803 -0.80841
-2.63523 -4.17803 -0.63841
-2.40523 -4.04803 -0.62841
-2.67523 -4.03803 -0.58841
-2.32523 -4.00803 -0.48841
-2.86523 -3.99803 -0.78841
-2.16523 -3.79803 -0.34841
-2.99523 -3.53803 -0.69841
-2.13523 -3.39803 -0.07841
-2.95523 -3.32803 -0.65841
-3.10523 -3.15803 -0.66841
-2.95523 -2.84803 -0.36841
-2.21523 -2.81803 -0.12841
-2.84523 -2.70803 -0.54841
-3.05523 -2.66803 -0.76841
-2.38523 -2.59803 -0.00841
-3.31523 -2.50803 -0.64841
-2.27523 -2.30803 0.08159
-3.04523 -2.26803 -0.39841
-3.33523 -2.21803 -0.50841
-2.25523 -2.20803 0.15159
-2.98523 -2.20803 -0.58841
-2.86523 -2.15803 -0.61841
-3.18523 -2.14803 -0.45841
-2.93523 -1.89803 -0.40841
-2.44523 -1.87803 -0.16841
-3.53523 -1.79803 -2.72841
-2.73523 -1.73803 -0.10841
-3.57523 -1.73803 -3.01841
-2.59523 -1.70803 0.03159
-2.80523 -1.70803 -0.45841
-3.84523 -1.56803 -7.34841
-2.56523 -1.46803 0.04159
-3.25523 -1.39803 -0.37841
-3.74523 -1.38803 -0.25841
-3.61523 -1.25803 0.02159
-2.87523 -1.25803 -0.13841
-3.38523 -1.21803 0.03159
-2.96523 -0.98803 -0.13841
-3.68523 -0.96803 0.05159
-2.65523 -0.95803 0.18159
-3.69523 -0.89803 0.20159
-2.88523 -0.85803 0.18159
-3.53523 -0.83803 0.03159
-4.15523 -0.78803 -3.06841
-4.08523 -0.76803 0.35159
-4.10523 -0.76803 0.29159
-4.02523 -0.61803 0.11159
-2.89523 -0.53803 0.22159
-4.04523 -0.45803 0.06159
-4.24523 -0.41803 -8.33841
-3.10523 -0.40803 0.21159
-4.24523 -0.39803 -0.00841
-2.93523 -0.32803 0.20159
-4.19523 -0.17803 0.06159
-2.90523 -0.11803 0.27159
-3.89523 -0.05803 -0.01841
-4.49523 0.01197 -2.59841
-2.77523 0.04197 0.24159
-2.44523 0.09197 0.39159
-2.71523 0.09197 0.19159
-2.18523 0.24197 0.88159
-2.12523 0.28197 0.76159
-2.55523 0.32197 0.47159
-3.22523 0.32197 0.11159
-2.46523 0.35197 0.25159
-3.84523 0.38197 -0.30841
-4.31523 0.39197 -0.32841
-3.52523 0.56197 -0.06841
-2.70523 0.56197 0.21159
-3.40523 0.64197 -0.08841
-3.54523 0.65197 -0.19841
-2.25523 0.68197 0.72159
-2.94523 0.78197 0.55159
-4.49523 0.79197 -0.64841
-3.63523 0.79197 -0.35841
-3.00523 0.85197 0.35159
-3.22523 0.89197 0.12159
-2.50523 0.92197 0.45159
-3.95523 0.93197 -0.20841
-2.68523 0.94197 0.46159
-3.26523 0.97197 -0.01841
-4.89523 1.01197 -0.71841
-4.80523 1.04197 -8.30841
-3.55523 1.05197 -0.13841
-4.74523 1.09197 -0.92841
-4.21523 1.12197 -0.36841
-2.15523 1.12197 0.45159
-3.57523 1.17197 0.04159
-4.37523 1.19197 -0.55841
-3.27523 1.20197 0.17159
-4.33523 1.27197 -0.52841
-4.35523 1.29197 -0.34841
-3.84523 1.32197 0.03159
-4.61523 1.42197 -0.51841
-3.49523 1.42197 0.00159
-3.13523 1.45197 0.34159
-4.56523 1.50197 -0.85841
-4.40523 1.54197 -0.51841
-4.05523 1.57197 -0.41841
-2.69523 1.65197 0.20159
-4.19523 1.68197 -0.10841
-3.68523 1.71197 -0.04841
-4.66523 1.78197 -0.42841
-4.69523 1.84197 -0.23841
-2.67523 1.86197 -0.09841
-4.24523 1.88197 -0.17841
-5.10523 1.88197 -0.92841
-5.20523 1.92197 -0.89841
-5.23523 2.01197 -0.81841
-2.38523 2.13197 -0.12841
-2.43523 2.15197 -0.01841
-2.30523 2.18197 0.04159
-3.57523 2.23197 -0.20841
-2.96523 2.34197 -0.20841
-2.14523 2.37197 -0.11841
-2.18523 2.38197 -0.25841
-2.38523 2.58197 -0.23841
-2.23523 2.60197 -0.28841
-3.64523 2.63197 -0.23841
-3.26523 2.66197 -0.30841
-3.23523 2.72197 -0.26841
-3.19523 2.77197 -0.32841
-2.94523 2.84197 -0.26841
-2.89523 2.84197 0.07159
-2.78523 2.88197 -0.10841
-2.47523 3.03197 -0.22841
-1.86523 -4.70803 -0.48841
-1.43523 -4.54803 -0.03841
-1.58523 -4.53803 -0.40841
-1.33523 -4.50803 -0.25841
-1.57523 -4.40803 -0.17841
-1.40523 -4.26803 -0.17841
-0.37523 -4.18803 -0.34841
-0.54523 -4.15803 -0.41841
-1.17523 -4.13803 -0.07841
-1.60523 -4.12803 -0.01841
-0.86523 -4.12803 -0.27841
-1.90523 -4.05803 -0.26841
-0.01523 -3.82803 -0.07841
0.44477 -3.75803 -0.36841
0.56477 -3.71803 -0.34841
-0.78523 -3.68803 0.02159
0.48477 -3.63803 -0.34841
-1.13523 -3.62803 0.33159
-0.97523 -3.61803 -0.00841
-1.94523 -3.60803 -0.03841
-0.41523 -3.58803 0.03159
0.22477 -3.50803 -0.34841
-0.28523 -3.48803 -0.08841
1.04477 -3.48803 -0.22841
0.68477 -3.45803 -0.06841
-1.42523 -3.44803 0.07159
0.46477 -3.41803 -0.02841
-2.11523 -3.40803 -0.37841
1.43477 -3.30803 -0.32841
-0.93523 -3.28803 0.48159
-0.12523 -3.27803 0.00159
-0.77523 -3.20803 0.67159
1.39477 -3.20803 -0.03841
-0.18523 -3.19803 0.19159
1.26477 -3.09803 -0.14841
-1.94523 -3.06803 0.03159
0.02477 -3.03803 0.16159
1.73477 -3.03803 -0.29841
-0.96523 -3.00803 0.65159
2.53477 -2.99803 -0.28841
-1.83523 -2.96803 0.19159
0.24477 -2.96803 0.19159
-1.25523 -2.90803 0.24159
2.88477 -2.88803 -0.21841
-0.65523 -2.87803 0.93159
-1.92523 -2.87803 -0.23841
1.79477 -2.83803 0.05159
0.67477 -2.78803 0.40159
-0.87523 -2.75803 0.63159
-0.96523 -2.73803 0.79159
-0.39523 -2.73803 0.57159
-1.41523 -2.67803 0.41159
2.52477 -2.65803 -0.30841
-0.56523 -2.65803 0.67159
-0.04523 -2.61803 0.56159
2.47477 -2.60803 0.02159
2.44477 -2.57803 0.01159
0.49477 -2.54803 0.53159
2.72477 -2.53803 -0.05841
2.87477 -2.52803 -0.02841
3.05477 -2.52803 -0.41841
1.20477 -2.51803 0.31159
3.46477 -2.51803 -0.29841
-2.02523 -2.49803 0.28159
1.75477 -2.48803 0.06159
-0.03523 -2.46803 0.69159
1.96477 -2.46803 -0.10841
-1.96523 -2.44803 0.06159
-1.21523 -2.40803 0.73159
0.85477 -2.40803 0.26159
-1.57523 -2.36803 0.27159
1.61477 -2.33803 0.31159
-0.25523 -2.33803 0.65159
-2.02523 -2.30803 -0.10841
3.39477 -2.29803 -0.41841
-1.31523 -2.27803 0.76159
3.05477 -2.27803 -0.07841
0.82477 -2.26803 0.40159
-1.70523 -2.24803 0.48159
4.00477 -2.23803 -0.16841
1.86477 -2.21803 0.14159
-1.28523 -2.20803 0.61159
0.18477 -2.18803 0.63159
4.31477 -2.17803 -0.40841
1.76477 -2.15803 0.45159
0.49477 -2.13803 0.70159
2.23477 -2.11803 0.31159
3.08477 -2.10803 0.00159
2.25477 -2.07803 0.22159
4.80477 -2.05803 -0.08841
4.93477 -2.04803 -0.52841
1.85477 -2.02803 0.31159
2.77477 -2.01803 0.33159
1.01477 -1.99803 0.53159
4.46477 -1.96803 -0.32841
0.62477 -1.95803 0.70159
2.14477 -1.95803 0.39159
-0.61523 -1.93803 1.11159
-0.58523 -1.88803 0.92159
1.15477 -1.85803 0.53159
-0.39523 -1.83803 1.10159
-1.03523 -1.83803 0.72159
3.66477 -1.82803 0.09159
-1.68523 -1.81803 0.50159
1.58477 -1.79803 0.69159
4.66477 -1.78803 -0.29841
5.00477 -1.78803 -0.52841
1.19477 -1.77803 0.53159
2.53477 -1.77803 0.39159
1.61477 -1.71803 0.70159
-2.10523 -1.71803 0.17159
-1.61523 -1.70803 0.68159
1.08477 -1.70803 0.96159
5.18477 -1.66803 -0.62841
0.04477 -1.63803 0.96159
0.35477 -1.58803 1.24159
2.48477 -1.58803 0.48159
4.21477 -1.58803 -0.14841
2.79477 -1.58803 0.24159
-0.06523 -1.51803 1.02159
0.26477 -1.50803 1.02159
3.70477 -1.46803 0.12159
-1.02523 -1.41803 1.03159
2.00477 -1.39803 0.64159
-0.81523 -1.37803 0.86159
4.33477 -1.36803 -0.32841
-0.79523 -1.35803 1.28159
1.27477 -1.34803 1.03159
0.53477 -1.34803 0.96159
3.96477 -1.33803 0.00159
4.83477 -1.32803 -0.84841
0.95477 -1.30803 0.96159
3.66477 -1.29803 -0.13841
0.39477 -1.26803 1.42159
2.50477 -1.26803 0.48159
1.36477 -1.22803 1.04159
-1.19523 -1.20803 0.81159
-1.99523 -1.19803 0.46159
0.24477 -1.18803 1.50159
4.24477 -1.18803 -0.30841
4.85477 -1.15803 -0.71841
0.09477 -1.11803 1.47159
-0.76523 -1.11803 1.28159
-1.83523 -1.10803 0.71159
3.43477 -1.09803 -0.03841
-1.96523 -1.09803 0.30159
1.05477 -1.07803 1.27159
-1.70523 -1.03803 0.73159
1.59477 -1.01803 1.17159
-0.52523 -0.99803 1.29159
2.92477 -0.96803 0.51159
0.42477 -0.94803 1.72159
3.66477 -0.93803 -0.10841
3.88477 -0.92803 -0.20841
4.25477 -0.91803 -0.45841
-0.12523 -0.90803 1.42159
3.26477 -0.88803 0.27159
-1.02523 -0.87803 1.42159
2.95477 -0.87803 0.23159
-0.87523 -0.87803 0.86159
1.63477 -0.84803 1.05159
4.17477 -0.83803 -0.31841
1.88477 -0.81803 0.98159
-0.33523 -0.79803 1.66159
0.36477 -0.79803 1.59159
2.72477 -0.73803 0.43159
-0.77523 -0.71803 1.44159
-2.04523 -0.64803 0.71159
2.72477 -0.64803 0.40159
4.51477 -0.64803 -0.53841
-1.75523 -0.64803 0.47159
4.25477 -0.63803 -0.50841
-1.82523 -0.62803 0.76159
-1.98523 -0.57803 0.53159
4.57477 -0.56803 -0.83841
1.57477 -0.55803 1.13159
3.04477 -0.53803 0.31159
-0.29523 -0.49803 1.67159
3.40477 -0.49803 -0.10841
0.93477 -0.49803 1.49159
2.18477 -0.47803 0.95159
-1.48523 -0.45803 0.80159
3.97477 -0.45803 -0.37841
2.59477 -0.44803 0.67159
2.23477 -0.43803 0.63159
4.48477 -0.41803 -0.75841
3.09477 -0.41803 0.17159
-0.97523 -0.41803 1.06159
1.07477 -0.37803 1.35159
0.42477 -0.35803 1.70159
3.19477 -0.34803 0.22159
-0.03523 -0.31803 1.78159
0.71477 -0.30803 1.68159
4.49477 -0.27803 -6.22841
-1.66523 -0.26803 0.54159
-1.23523 -0.25803 1.18159
-1.00523 -0.24803 1.34159
0.01477 -0.24803 1.83159
3.24477 -0.21803 -0.05841
1.94477 -0.19803 0.94159
2.01477 -0.18803 0.81159
-1.95523 -0.18803 0.79159
-0.60523 -0.13803 1.50159
2.40477 -0.12803 0.66159
3.86477 -0.10803 -0.42841
1.00477 -0.07803 1.51159
-1.05523 -0.03803 1.44159
2.56477 -0.03803 0.36159
1.98477 -0.01803 0.75159
1.92477 -0.00803 1.02159
0.82477 0.02197 1.39159
3.13477 0.02197 0.26159
1.37477 0.03197 1.15159
1.27477 0.03197 1.05159
3.63477 0.04197 -0.07841
-1.80523 0.06197 0.77159
3.65477 0.07197 -0.11841
-1.58523 0.09197 1.05159
-0.03523 0.10197 1.91159
-1.11523 0.17197 1.38159
4.37477 0.18197 -5.95841
0.73477 0.19197 1.47159
-0.27523 0.24197 1.66159
3.09477 0.24197 -0.02841
1.31477 0.26197 1.20159
2.45477 0.28197 0.43159
1.76477 0.28197 0.97159
-0.04523 0.30197 1.59159
-0.09523 0.33197 1.48159
4.13477 0.40197 -0.49841
-0.39523 0.42197 1.48159
1.22477 0.43197 1.27159
-1.86523 0.45197 0.96159
-1.26523 0.46197 1.16159
-0.89523 0.46197 1.20159
2.16477 0.47197 0.64159
1.21477 0.51197 1.25159
0.62477 0.52197 1.57159
3.38477 0.52197 -0.39841
2.20477 0.55197 0.34159
1.03477 0.57197 1.06159
0.18477 0.57197 1.52159
3.93477 0.61197 -7.20841
-0.02523 0.63197 1.21159
-1.43523 0.67197 0.84159
1.09477 0.69197 1.17159
-1.02523 0.70197 0.94159
4.18477 0.74197 -7.22841
0.55477 0.74197 1.38159
0.06477 0.75197 1.49159
4.14477 0.75197 -0.59841
2.80477 0.75197 0.11159
-2.00523 0.78197 0.59159
3.81477 0.80197 -4.23841
3.97477 0.84197 -0.89841
2.10477 0.86197 0.67159
2.62477 0.87197 0.02159
0.51477 0.88197 1.47159
1.29477 0.90197 0.86159
3.33477 0.92197 -0.17841
3.82477 0.92197 -0.68841
-0.86523 0.93197 0.95159
4.20477 0.95197 -0.87841
2.21477 0.95197 0.44159
0.07477 0.96197 1.15159
-1.00523 0.98197 1.05159
-0.95523 0.98197 0.93159
-1.03523 1.04197 0.79159
3.40477 1.06197 -0.40841
-0.33523 1.07197 1.17159
3.71477 1.07197 -6.15841
0.37477 1.14197 1.10159
-0.56523 1.14197 0.92159
-1.78523 1.16197 0.58159
3.42477 1.21197 -0.35841
-2.06523 1.22197 0.66159
2.25477 1.25197 0.21159
4.01477 1.26197 -0.77841
-0.32523 1.27197 0.98159
3.73477 1.27197 -0.76841
1.14477 1.29197 1.00159
2.56477 1.33197 -0.02841
3.56477 1.36197 -0.51841
-0.35523 1.37197 1.03159
3.08477 1.39197 -0.38841
1.38477 1.39197 0.79159
2.59477 1.41197 0.31159
1.09477 1.44197 0.91159
0.29477 1.46197 0.99159
1.93477 1.47197 0.55159
2.87477 1.48197 -0.10841
-0.71523 1.52197 0.81159
-1.61523 1.53197 0.40159
-1.69523 1.58197 0.47159
3.73477 1.59197 -0.58841
-1.33523 1.63197 0.55159
-0.45523 1.63197 0.57159
2.77477 1.64197 0.05159
-1.85523 1.65197 0.25159
1.33477 1.65197 0.78159
0.06477 1.66197 0.68159
1.10477 1.68197 0.93159
1.72477 1.70197 0.51159
2.91477 1.73197 -0.30841
-1.34523 1.73197 0.41159
2.90477 1.78197 -0.23841
3.52477 1.79197 -0.72841
2.38477 1.84197 0.08159
-1.26523 1.84197 0.34159
2.20477 1.86197 0.10159
-1.26523 1.87197 0.41159
-0.92523 1.89197 0.27159
0.62477 1.92197 0.88159
1.78477 1.92197 0.54159
1.66477 1.93197 0.42159
0.90477 1.93197 0.89159
-0.21523 2.00197 0.62159
0.23477 2.00197 0.44159
2.91477 2.04197 -0.31841
-1.31523 2.08197 0.24159
2.05477 2.09197 0.29159
-1.25523 2.11197 0.19159
-1.93523 2.12197 -0.08841
-0.37523 2.14197 0.47159
1.10477 2.15197 0.74159
0.53477 2.17197 0.39159
2.26477 2.19197 0.02159
3.13477 2.19197 -0.25841
1.70477 2.27197 0.35159
3.64477 2.27197 -0.74841
0.53477 2.28197 0.53159
1.67477 2.30197 0.41159
-2.11523 2.31197 -0.08841
3.03477 2.32197 -0.66841
1.85477 2.35197 0.14159
-1.38523 2.36197 0.07159
0.19477 2.37197 0.33159
0.78477 2.40197 0.30159
-0.57523 2.41197 0.21159
2.69477 2.41197 -0.18841
0.96477 2.44197 0.71159
-0.22523 2.47197 0.10159
0.56477 2.51197 0.55159
1.39477 2.53197 0.70159
-1.18523 2.54197 -0.26841
1.62477 2.60197 0.37159
-2.07523 2.60197 -0.33841
-1.65523 2.65197 -0.09841
2.98477 2.71197 -0.46841
-0.66523 2.71197 -0.17841
0.34477 2.72197 0.15159
-0.51523 2.74197 0.27159
2.21477 2.75197 -0.12841
3.24477 2.76197 -5.39841
0.86477 2.80197 0.38159
0.96477 2.80197 0.24159
-0.21523 2.87197 -0.07841
-0.14523 2.88197 -0.10841
-1.27523 2.96197 -0.29841
-1.60523 2.97197 0.07159
2.77477 2.98197 -0.37841
-0.04523 3.00197 0.13159
2.13477 3.00197 0.00159
3.11477 3.02197 -0.83841
0.49477 3.03197 0.15159
-0.71523 3.05197 -0.37841
0.87477 3.06197 0.18159
3.17477 3.07197 -5.73841
3.28477 3.19197 -5.80841
1.92477 3.21197 -0.03841
1.69477 3.21197 0.00159
3.13477 3.31197 -0.85841
-0.03523 3.34197 -0.09841
1.98477 3.37197 -0.17841
2.46477 3.40197 -0.44841
2.11477 3.40197 -0.13841
0.87477 3.42197 -0.07841
0.91477 3.43197 -0.02841
2.75477 3.47197 -0.34841
-0.08523 3.50197 -0.28841
-0.34523 3.51197 -0.20841
0.04477 3.56197 -0.30841
-1.10523 3.56197 -0.36841
1.33477 3.62197 0.05159
2.85477 3.64197 -0.75841
-0.14523 3.65197 -0.32841
2.90477 3.65197 -0.57841
2.97477 3.67197 -5.87841
2.52477 3.67197 -5.65841
1.91477 3.69197 -0.03841
2.24477 3.72197 -0.36841
2.09477 3.74197 -0.33841
1.18477 3.74197 -0.32841
1.06477 3.79197 -0.28841
0.32477 3.84197 -0.30841
-0.09523 3.86197 -0.24841
0.77477 3.93197 -0.44841
2.59477 3.96197 -4.40841
0.94477 3.97197 -0.25841
1.96477 3.98197 -0.05841
2.73477 4.01197 -0.71841
1.34477 4.01197 -0.60841
2.16477 4.06197 -0.33841
2.78477 4.08197 -0.84841
2.24477 4.09197 -0.13841
2.13477 4.10197 -0.45841
1.67477 4.12197 -0.46841
0.62477 4.18197 -0.39841
1.03477 4.29197 -0.19841
1.13477 4.29197 -0.48841
2.07477 4.43197 -0.51841
2.68477 4.49197 -0.86841
1.44477 4.54197 -0.46841
1.43477 4.56197 -0.30841
1.35477 4.59197 -0.36841
2.65477 4.90197 -0.90841
