-1.46083 -2.84569 -0.18449
-1.08083 -2.83569 0.04551
-1.03083 -2.60569 -0.01449
-1.37083 -2.58569 -0.12449
-1.18083 -2.35569 0.15551
-1.05083 -2.34569 0.13551
-1.04083 -2.13569 0.00551
-1.27083 -1.89569 0.19551
-1.15083 -1.83569 0.22551
-1.74083 -1.74569 0.10551
-1.14083 -1.56569 0.19551
-1.36083 -1.42569 0.22551
-1.25083 -1.34569 0.27551
-1.79083 -1.30569 0.02551
-1.05083 -1.26569 0.24551
-1.85083 -1.18569 0.16551
-2.78083 -1.11569 -0.04449
-2.76083 -1.09569 -0.27449
-1.24083 -1.03569 0.24551
-1.46083 -0.91569 0.39551
-1.53083 -0.87569 0.19551
-1.91083 -0.87569 0.04551
-1.35083 -0.82569 0.34551
-1.69083 -0.80569 0.13551
-1.16083 -0.67569 0.33551
-2.52083 -0.66569 0.09551
-2.74083 -0.64569 0.16551
-3.01083 -0.63569 -0.23449
-1.63083 -0.48569 0.27551
-1.34083 -0.48569 0.34551
-3.29083 -0.47569 0.02551
-3.54083 -0.46569 0.14551
-1.56083 -0.44569 0.43551
-3.46083 -0.43569 -0.01449
-1.73083 -0.31569 0.19551
-1.45083 -0.31569 0.39551
-3.50083 -0.26569 0.16551
-2.76083 -0.24569 0.16551
-2.76083 -0.17569 0.02551
-1.26083 -0.09569 0.42551
-3.68083 -0.07569 -0.10449
-3.68083 -0.06569 0.09551
-1.64083 -0.00569 0.33551
-3.85083 0.00431 -0.12449
-1.44083 0.05431 0.35551
-3.57083 0.11431 0.06551
-3.40083 0.11431 0.12551
-1.54083 0.16431 0.33551
-3.58083 0.17431 -0.07449
-1.51083 0.18431 0.25551
-2.70083 0.24431 -0.03449
-1.09083 0.35431 0.32551
-3.76083 0.38431 -0.05449
-1.36083 0.42431 0.25551
-1.73083 0.45431 0.27551
-1.15083 0.52431 0.24551
-1.53083 0.54431 0.24551
-3.50083 0.62431 -0.10449
-1.63083 0.64431 0.24551
-2.14083 0.73431 0.11551
-2.58083 0.82431 -0.03449
-1.82083 0.90431 0.19551
-2.05083 0.92431 -0.02449
-3.12083 0.94431 -0.09449
-1.46083 0.97431 0.15551
-1.33083 0.98431 0.20551
-1.63083 1.05431 0.14551
-1.72083 1.11431 0.09551
-1.48083 1.18431 0.05551
-1.98083 1.22431 -0.02449
-2.44083 1.23431 -0.03449
-1.90083 1.33431 0.00551
-1.56083 1.50431 -0.05449
-1.73083 1.55431 -0.00449
-1.82083 1.60431 -0.00449
-1.57083 1.62431 -0.11449
-1.99083 1.81431 -0.04449
-1.97083 1.88431 -0.45449
-1.82083 2.05431 -0.16449
-1.67083 2.06431 -0.13449
-1.86083 2.07431 -2.11449
-1.91083 2.08431 -0.15449
-1.87083 2.10431 -2.07449
-1.71083 2.11431 -2.11449
0.47917 -3.69569 -0.12449
-0.63083 -3.58569 -0.23449
-0.17083 -3.53569 -0.09449
-0.78083 -3.43569 -0.14449
0.80917 -3.33569 0.06551
-0.86083 -3.33569 -0.07449
-0.99083 -3.29569 -0.04449
-0.04083 -3.24569 0.05551
-0.85083 -3.17569 -0.09449
-0.43083 -3.14569 -0.02449
-0.34083 -3.08569 0.01551
-1.01083 -3.02569 -0.13449
-0.74083 -3.00569 -0.10449
0.29917 -2.99569 0.07551
1.13917 -2.98569 -0.11449
1.00917 -2.96569 -0.14449
-0.95083 -2.86569 -0.01449
0.08917 -2.85569 0.17551
0.81917 -2.81569 0.10551
1.16917 -2.77569 0.12551
1.30917 -2.73569 -0.03449
1.38917 -2.67569 -0.14449
-0.95083 -2.64569 -0.01449
1.04917 -2.50569 -0.06449
0.90917 -2.48569 -0.01449
-0.84083 -2.43569 -0.00449
-0.71083 -2.37569 0.15551
1.07917 -2.30569 0.01551
-0.03083 -2.28569 0.34551
1.19917 -2.16569 0.06551
0.41917 -2.06569 0.24551
0.81917 -2.00569 0.10551
0.93917 -1.98569 0.11551
1.03917 -1.97569 0.11551
1.27917 -1.95569 0.03551
-0.95083 -1.84569 0.10551
2.44917 -1.81569 -0.03449
0.20917 -1.74569 0.27551
0.97917 -1.74569 0.17551
-0.94083 -1.73569 0.25551
2.54917 -1.68569 -0.04449
1.52917 -1.68569 0.14551
1.55917 -1.60569 0.06551
1.09917 -1.57569 0.19551
-0.79083 -1.52569 0.13551
0.71917 -1.52569 0.21551
1.47917 -1.48569 0.21551
0.83917 -1.46569 0.21551
-0.61083 -1.43569 0.29551
0.15917 -1.42569 0.39551
0.34917 -1.36569 0.32551
2.69917 -1.32569 0.03551
0.42917 -1.29569 0.40551
1.58917 -1.28569 0.21551
2.69917 -1.24569 -0.05449
0.87917 -1.20569 0.30551
1.85917 -1.18569 0.15551
2.82917 -1.17569 0.01551
-0.80083 -1.12569 0.28551
-0.55083 -1.08569 0.34551
0.56917 -1.08569 0.45551
0.61917 -1.04569 0.31551
0.98917 -1.00569 0.30551
0.63917 -0.96569 0.46551
0.72917 -0.93569 0.39551
2.74917 -0.90569 0.03551
3.12917 -0.90569 -0.01449
-0.77083 -0.87569 0.36551
2.96917 -0.86569 -0.08449
0.73917 -0.75569 0.46551
2.59917 -0.75569 0.04551
-0.52083 -0.73569 0.51551
1.68917 -0.70569 0.22551
2.73917 -0.68569 0.01551
3.22917 -0.67569 -0.03449
0.77917 -0.64569 0.43551
3.85917 -0.60569 -0.25449
0.51917 -0.55569 0.39551
-0.43083 -0.46569 0.54551
0.62917 -0.42569 0.41551
0.88917 -0.38569 0.52551
1.87917 -0.36569 0.30551
2.98917 -0.32569 -0.04449
2.86917 -0.32569 -0.00449
3.01917 -0.32569 0.04551
2.50917 -0.30569 0.02551
-0.16083 -0.20569 0.51551
2.63917 -0.20569 -0.00449
1.91917 -0.11569 0.20551
0.67917 -0.11569 0.48551
0.69917 -0.08569 0.49551
0.42917 -0.08569 0.41551
2.97917 -0.06569 -0.17449
2.22917 -0.06569 0.07551
3.36917 0.01431 -0.22449
0.53917 0.05431 0.35551
0.84917 0.09431 0.44551
2.42917 0.14431 -0.06449
0.78917 0.14431 0.40551
3.51917 0.17431 -0.21449
2.77917 0.17431 -0.09449
0.95917 0.19431 0.31551
3.10917 0.20431 -0.20449
2.91917 0.20431 -0.06449
2.14917 0.25431 0.10551
2.54917 0.27431 -0.10449
-0.18083 0.30431 0.49551
0.33917 0.37431 0.35551
0.58917 0.37431 0.36551
2.05917 0.39431 0.03551
2.10917 0.47431 0.00551
0.94917 0.50431 0.31551
-0.38083 0.54431 0.30551
0.44917 0.54431 0.29551
1.21917 0.55431 0.18551
2.33917 0.58431 -0.15449
1.00917 0.59431 0.18551
3.08917 0.67431 -0.25449
0.68917 0.67431 0.29551
2.67917 0.68431 -0.17449
2.82917 0.72431 -0.25449
-0.24083 0.74431 0.47551
0.03917 0.74431 0.37551
2.45917 0.76431 -0.16449
-0.04083 0.79431 0.38551
2.49917 0.79431 -0.11449
0.24917 0.83431 0.31551
0.48917 0.88431 0.30551
1.86917 0.90431 0.04551
-1.00083 1.00431 0.16551
1.23917 1.00431 0.12551
0.35917 1.02431 0.20551
2.24917 1.04431 -0.23449
0.67917 1.13431 0.21551
0.21917 1.17431 0.31551
2.57917 1.19431 -0.25449
0.57917 1.23431 0.25551
2.36917 1.24431 -0.26449
0.16917 1.28431 0.17551
-0.94083 1.30431 0.08551
2.36917 1.34431 -0.13449
-0.47083 1.37431 0.16551
0.39917 1.40431 0.23551
1.45917 1.42431 -0.01449
2.15917 1.51431 -0.27449
0.25917 1.52431 0.15551
0.34917 1.55431 0.11551
2.34917 1.61431 -2.70449
2.27917 1.70431 -0.47449
0.06917 1.75431 0.14551
0.47917 1.77431 0.10551
-0.83083 1.80431 0.09551
2.14917 1.82431 -2.71449
1.43917 1.90431 -0.12449
1.46917 1.91431 -0.13449
0.28917 1.94431 0.25551
0.15917 2.04431 0.13551
0.43917 2.05431 0.10551
-0.57083 2.10431 0.04551
0.37917 2.12431 0.16551
-0.01083 2.19431 -0.03449
1.74917 2.28431 -0.23449
0.37917 2.33431 0.04551
-0.62083 2.34431 0.05551
1.56917 2.36431 -2.67449
0.19917 2.44431 0.09551
0.54917 2.45431 0.03551
1.50917 2.52431 -0.22449
0.53917 2.53431 0.03551
0.06917 2.53431 -0.01449
-0.64083 2.68431 -0.07449
-0.11083 2.68431 -0.02449
0.45917 2.72431 -0.04449
-0.60083 2.77431 -0.07449
0.99917 2.80431 -0.22449
0.27917 2.89431 -0.04449
-0.51083 2.93431 -0.21449
0.09917 2.96431 0.01551
-0.41083 3.00431 -0.14449
-0.02083 3.03431 -0.14449
0.59917 3.10431 -0.14449
-0.20083 3.16431 -0.12449
0.76917 3.37431 -0.27449
0.00917 3.41431 -0.07449
-0.02083 3.43431 -2.57449
-0.00083 3.47431 -0.08449
0.16917 3.48431 -0.04449
-0.23083 3.54431 -2.45449
-0.13083 3.57431 -0.13449
-0.09083 3.58431 -2.10449
-0.05083 3.68431 -1.35449
0.09917 3.72431 -1.34449
