-0.92576 2.93798 -0.37020
0.16424 2.91798 -0.32020
1.57424 -2.80202 -0.02020
-2.73576 0.07798 -1.63020
-0.61576 2.86798 -0.31020
-1.88576 -0.70202 0.23980
-2.66576 0.06798 -0.26020
-2.56576 -0.13202 -0.31020
-2.59576 -0.14202 -1.90020
-1.91576 -0.52202 0.20980
-2.40576 -2.17202 -2.67020
-2.29576 -2.21202 -1.55020
-2.34576 -0.13202 -0.05020
-2.39576 -1.68202 -0.10020
-2.38576 -1.75202 -0.03020
-2.31576 -2.27202 -0.21020
-1.93576 -1.27202 0.17980
-2.25576 0.31798 0.11980
-2.28576 -2.33202 -2.03020
-2.25576 -2.20202 -0.07020
-2.23576 -0.32202 -0.05020
-1.93576 -0.11202 0.19980
-2.02576 -0.32202 0.15980
-1.94576 -2.40202 0.07980
-1.99576 -2.47202 -0.01020
1.57424 -2.69202 0.06980
-0.13576 0.31798 0.77980
-0.90576 -3.05202 0.04980
-1.34576 -3.53202 0.00980
-1.56576 -0.73202 0.28980
-1.69576 -0.53202 0.26980
-1.67576 -2.66202 0.16980
-1.63576 -2.59202 0.22980
-1.37576 -0.73202 0.38980
-1.49576 -2.36202 0.29980
-1.47576 0.87798 0.30980
-1.49576 -3.24202 -0.05020
-0.90576 -1.14202 0.54980
-1.23576 -0.94202 0.43980
-1.29576 -2.81202 0.22980
-1.29576 -2.90202 0.13980
-1.28576 -1.92202 0.36980
-0.91576 -3.14202 -0.00020
-1.22576 -1.88202 0.40980
-1.05576 -0.93202 0.50980
-1.13576 0.14798 0.61980
-0.48576 0.52798 0.68980
-0.76576 -0.31202 0.71980
-0.81576 -0.89202 0.64980
-0.83576 0.72798 0.61980
-0.80576 0.72798 0.52980
-0.76576 -1.11202 0.72980
-0.58576 -1.34202 0.71980
-0.69576 -1.46202 0.67980
-0.67576 0.74798 0.53980
-0.54576 -3.28202 -0.08020
-0.54576 -3.38202 -0.12020
-0.28576 -3.42202 0.21980
-0.47576 -2.51202 0.21980
-0.45576 -1.30202 0.85980
-0.35576 0.54798 0.63980
-0.40576 0.70798 0.60980
-0.22576 -2.08202 0.39980
-0.21576 -1.57202 0.64980
1.45424 0.37798 0.39980
0.64424 0.54798 0.61980
0.26424 -1.75202 0.60980
0.04424 0.22798 -2.73020
-0.09576 -1.53202 0.73980
-0.11576 -2.05202 0.44980
-0.03576 0.34798 0.71980
-0.04576 -0.02202 0.93980
0.25424 -1.06202 0.86980
0.15424 -1.80202 0.54980
0.18424 0.11798 0.89980
0.63424 -1.99202 0.39980
0.46424 -1.63202 0.53980
0.27424 0.15798 0.86980
0.32424 0.54798 0.68980
0.38424 -0.50202 0.96980
0.53424 -0.10202 0.86980
0.52424 -2.03202 0.37980
0.59424 -0.04202 0.90980
0.54424 -2.65202 0.06980
1.44424 -0.63202 0.47980
0.88424 -2.26202 0.23980
0.82424 -2.24202 0.29980
0.96424 -2.20202 0.32980
0.89424 -0.32202 0.81980
0.94424 -0.27202 0.80980
1.25424 -1.20202 0.56980
0.98424 -2.21202 0.29980
0.98424 -0.18202 0.70980
1.24424 -2.49202 0.09980
1.27424 -0.56202 0.58980
1.30424 -2.42202 0.19980
1.30424 -0.49202 0.64980
-2.54576 2.85798 -0.36020
2.34424 -1.23202 0.16980
1.65424 -2.64202 0.02980
1.63424 0.41798 0.27980
1.61424 -1.80202 0.43980
1.65424 -0.72202 0.45980
1.64424 -0.79202 0.44980
1.97424 -2.84202 -0.05020
1.84424 -2.39202 0.05980
1.91424 -2.91202 -0.08020
2.33424 -1.15202 0.16980
2.07424 -2.37202 0.13980
2.01424 -1.03202 0.21980
1.98424 -0.32202 0.20980
2.00424 -0.94202 0.30980
2.16424 -3.06202 0.18980
2.24424 -1.32202 0.12980
2.23424 0.81798 0.02980
2.24424 -3.01202 0.08980
2.51424 -0.77202 -0.00020
2.48424 0.82798 -0.03020
2.67424 -1.45202 0.06980
2.62424 -2.97202 0.14980
2.56424 0.21798 -0.10020
2.62424 0.84798 -0.08020
2.66424 -1.36202 0.04980
2.63424 0.27798 -0.09020
2.88424 -2.55202 -0.14020
2.73424 -1.97202 -0.01020
3.01424 -1.66202 -0.05020
2.99424 -1.57202 -0.09020
3.13424 -2.51202 -0.18020
-2.59576 2.81798 -0.44020
-0.55576 2.70798 -0.37020
-0.31576 1.35798 -2.84020
-1.64576 1.33798 0.09980
-1.12576 1.31798 0.09980
-0.99576 0.93798 0.39980
-2.05576 0.91798 0.25980
-1.12576 0.92798 0.31980
-1.46576 1.13798 0.18980
-2.53576 1.05798 0.06980
-1.32576 1.13798 0.24980
-1.37576 2.67798 -0.32020
0.48424 2.06798 -0.16020
-2.56576 1.81798 -0.09020
-1.97576 1.54798 -0.02020
-1.84576 1.36798 0.13980
-2.26576 1.49798 -0.04020
-2.32576 1.75798 -0.17020
-2.17576 1.57798 -0.07020
0.51424 1.73798 0.16980
-3.00576 2.05798 -1.73020
-0.56576 1.90798 -0.03020
1.00424 1.85798 0.04980
0.79424 1.87798 0.02980
0.69424 2.05798 -0.03020
-2.66576 1.96798 -0.29020
-2.91576 2.02798 -0.29020
-1.55576 2.65798 -0.40020
0.14424 2.27798 -0.23020
-3.03576 2.16798 -2.09020
-1.64576 2.07798 -0.16020
-2.70576 2.23798 -0.27020
-3.02576 2.19798 -0.38020
0.39424 2.23798 -0.20020
-0.28576 2.65798 -0.25020
0.06424 2.44798 -0.22020
0.99424 2.31798 -0.07020
0.54424 2.32798 -0.21020
-0.18576 2.49798 -0.19020
-0.18576 2.48798 -0.33020
-0.50576 2.48798 -0.26020
-0.95576 3.07798 -0.40020
-0.90576 3.01798 -2.25020
-1.16576 3.03798 -2.72020
-0.97576 3.08798 -0.44020
2.14424 1.03798 0.04980
2.28424 1.05798 0.04980
1.94424 1.26798 0.15980
1.77424 1.27798 0.23980
2.57424 1.42798 -0.20020
1.61424 1.48798 0.24980
1.42424 1.49798 0.31980
1.57424 1.57798 0.23980
1.13424 1.66798 0.06980
1.30424 1.67798 0.18980
1.58424 2.15798 -0.04020
2.17424 2.13798 -0.00020
2.39424 2.57798 -0.30020
1.27424 2.74798 -0.36020
1.82424 2.99798 -0.33020
2.32424 2.79798 -0.28020
2.15424 2.79798 -0.32020
2.00424 2.98798 -0.30020
1.69424 3.18798 -0.39020
1.46424 3.22798 -0.29020
1.33424 3.24798 -2.89020
1.37424 3.38798 -0.44020
1.24424 3.41798 -2.88020
1.15424 0.95798 0.43980
