-1.41301 -4.47267 -0.61563
-1.18301 -3.85267 -0.20563
-0.38301 -3.84267 -0.34563
-0.99301 -3.78267 -0.32563
0.26699 -3.54267 -0.57563
-0.58301 -3.52267 -0.32563
-0.88301 -3.34267 -0.09563
-0.75301 -3.32267 -0.22563
-1.13301 -3.21267 0.17437
-0.48301 -2.91267 0.17437
-1.49301 -2.71267 0.10437
0.02699 -2.69267 -0.03563
-1.47301 -2.67267 0.09437
-1.93301 -2.58267 0.14437
0.34699 -2.57267 0.02437
-1.28301 -2.55267 0.23437
0.57699 -2.53267 0.13437
-0.84301 -2.39267 0.40437
-1.15301 -2.27267 0.31437
-1.28301 -2.26267 0.36437
-2.32301 -2.12267 -0.32563
-2.89301 -2.10267 -0.50563
-0.71301 -2.05267 0.54437
-2.77301 -1.95267 -0.26563
-0.17301 -1.91267 0.51437
0.55699 -1.71267 0.41437
-2.12301 -1.62267 0.08437
-3.11301 -1.52267 -0.50563
0.25699 -1.52267 0.73437
-1.76301 -1.50267 0.20437
-1.56301 -1.43267 0.31437
-1.55301 -1.39267 0.42437
0.54699 -1.36267 0.63437
-1.08301 -1.35267 0.63437
-0.93301 -1.28267 0.86437
0.00699 -1.28267 0.87437
-1.41301 -1.23267 0.48437
-3.14301 -1.07267 -0.28563
0.38699 -1.00267 0.78437
-2.98301 -0.98267 -0.24563
-0.52301 -0.87267 1.24437
-2.41301 -0.81267 -0.03563
-1.74301 -0.66267 0.72437
0.25699 -0.57267 1.19437
0.72699 -0.42267 1.09437
-0.34301 -0.38267 1.25437
-1.32301 -0.32267 0.85437
-2.05301 -0.32267 0.39437
-1.82301 -0.23267 0.56437
-1.38301 -0.22267 0.88437
-1.66301 -0.21267 0.52437
-3.24301 -0.19267 -0.22563
0.78699 -3.33267 -0.50563
1.30699 -3.14267 -0.45563
0.85699 -2.85267 -0.31563
1.79699 -2.80267 -0.34563
1.24699 -2.69267 -0.24563
0.84699 -2.63267 -0.10563
3.00699 -2.27267 -0.42563
1.80699 -2.22267 -0.21563
1.02699 -2.16267 0.15437
2.26699 -2.04267 0.01437
3.02699 -2.01267 -0.29563
2.60699 -1.70267 -0.05563
2.74699 -1.65267 -0.04563
2.27699 -1.65267 0.18437
1.09699 -1.61267 0.35437
0.98699 -1.56267 0.39437
3.01699 -1.53267 -0.02563
2.43699 -1.46267 0.09437
3.94699 -1.13267 -3.46563
3.91699 -1.09267 -0.42563
1.50699 -1.02267 0.54437
1.98699 -1.01267 0.38437
2.76699 -0.92267 0.21437
2.22699 -0.89267 0.27437
1.93699 -0.79267 0.65437
3.82699 -0.65267 -0.60563
2.33699 -0.63267 0.32437
3.43699 -0.51267 -0.61563
0.75699 -0.40267 0.97437
1.20699 -0.38267 0.66437
2.16699 -0.30267 0.20437
1.41699 -0.24267 0.47437
-4.26301 1.22733 -0.49563
-4.13301 1.61733 -0.51563
-4.03301 0.60733 -0.47563
-3.86301 0.50733 -0.44563
-3.60301 0.93733 -0.25563
-3.42301 0.59733 -0.06563
-3.37301 -0.08267 -0.37563
-3.15301 1.07733 -0.26563
-2.81301 1.37733 -0.08563
-2.59301 2.11733 -0.51563
-2.57301 -0.03267 0.35437
-2.56301 1.83733 -0.35563
-2.32301 1.89733 -0.24563
-2.32301 0.78733 0.31437
-2.25301 0.41733 0.46437
-2.16301 2.09733 -0.43563
-2.10301 1.69733 -0.14563
-2.08301 0.86733 0.35437
-1.99301 2.35733 -0.58563
-1.98301 0.79733 0.42437
-1.97301 2.45733 -0.48563
-1.90301 0.77733 0.48437
-1.77301 1.57733 0.16437
-1.73301 1.48733 0.06437
-1.55301 0.64733 0.63437
-1.29301 1.48733 0.07437
-1.15301 0.20733 0.92437
-1.11301 1.70733 -0.09563
-1.00301 3.06733 -0.62563
-0.87301 0.84733 0.64437
-0.81301 2.95733 -0.49563
-0.77301 2.02733 0.07437
-0.60301 3.20733 -0.47563
-0.54301 0.97733 0.73437
-0.53301 2.61733 -0.31563
-0.48301 2.99733 -0.41563
-0.41301 0.87733 0.72437
-0.39301 2.27733 0.07437
-0.31301 -0.06267 1.34437
-0.30301 3.14733 -0.71563
-0.23301 1.97733 0.26437
-0.21301 1.04733 0.62437
-0.19301 1.34733 0.61437
-0.16301 3.36733 -0.48563
-0.02301 0.22733 1.13437
0.00699 0.94733 0.91437
0.01699 0.41733 1.13437
0.02699 2.36733 0.04437
0.04699 2.45733 0.10437
0.25699 -0.10267 1.40437
0.26699 1.52733 0.64437
0.33699 1.98733 0.31437
0.42699 0.24733 0.90437
0.49699 0.55733 0.96437
0.59699 2.49733 -0.00563
0.61699 0.40733 0.71437
0.76699 2.94733 -0.19563
0.83699 1.77733 0.36437
0.90699 3.61733 -0.38563
1.12699 1.35733 0.24437
1.13699 2.55733 0.18437
1.28699 3.33733 -0.27563
1.37699 3.03733 -0.16563
1.39699 3.32733 -0.19563
1.40699 1.85733 -0.07563
1.41699 1.40733 0.21437
1.43699 4.03733 -0.63563
1.52699 4.07733 -3.51563
1.58699 2.31733 -0.20563
1.58699 1.16733 0.08437
1.62699 3.95733 -0.49563
1.63699 1.92733 -0.02563
1.63699 2.32733 -0.12563
1.67699 0.30733 0.37437
1.85699 2.96733 -0.42563
1.86699 1.33733 0.01437
1.90699 0.72733 0.05437
1.90699 0.79733 0.07437
1.97699 3.40733 -3.52563
2.04699 2.71733 -0.56563
2.08699 1.98733 -0.28563
2.10699 0.33733 0.08437
2.19699 1.21733 -0.33563
2.31699 0.98733 -0.25563
2.32699 0.55733 -0.18563
2.35699 1.67733 -0.54563
2.54699 2.10733 -3.50563
2.54699 0.02733 -0.09563
2.65699 0.10733 -0.50563
2.98699 0.57733 -0.58563
3.07699 -0.04267 -0.37563
3.51699 -0.05267 -3.48563
