-3.14901 -0.02838 -0.15973
-3.34901 -0.05838 0.11027
-3.31901 -0.09838 -0.01973
-0.64901 1.17162 0.46027
-3.09901 -0.08838 0.08027
-0.64901 -2.15838 0.26027
-2.53901 -0.16838 0.20027
-3.05901 -0.13838 0.03027
-2.54901 1.43162 -0.30973
-2.99901 1.04162 -0.07973
-2.82901 0.33162 -0.24973
-2.80901 -0.12838 0.17027
-2.80901 -0.17838 0.00027
-2.56901 1.06162 -0.10973
-2.58901 1.43162 -0.15973
-2.57901 -0.91838 0.04027
-0.65901 -2.56838 0.17027
-2.28901 -0.54838 0.14027
-2.49901 -0.21838 0.19027
-2.43901 0.91162 -0.07973
-2.39901 1.36162 -0.08973
-2.10901 0.50162 0.08027
-2.23901 -0.20838 0.26027
-2.24901 -0.83838 0.08027
-2.24901 1.39162 -0.17973
-2.19901 -0.26838 0.28027
-1.61901 1.30162 0.08027
-2.09901 1.32162 0.01027
-1.97901 -1.01838 0.14027
-1.92901 -0.25838 0.32027
-1.93901 0.96162 0.01027
-1.91901 1.34162 -0.00973
-1.83901 1.66162 -0.18973
-1.88901 -0.30838 0.37027
-1.84901 -0.24838 0.32027
-1.85901 0.82162 0.04027
-1.82901 1.28162 0.00027
-1.24901 1.20162 0.15027
-1.55901 -2.02838 0.13027
-1.57901 -0.94838 0.28027
-1.60901 -2.01838 0.04027
-1.60901 -0.29838 0.41027
-1.56901 0.80162 0.04027
-1.57901 -1.95838 -0.02973
-1.53901 -1.76838 -0.08973
-1.52901 -0.35838 0.64027
-1.50901 1.24162 0.18027
-1.24901 0.84162 0.32027
-1.39901 -1.10838 0.16027
-1.33901 -1.12838 0.38027
-1.31901 1.26162 0.14027
-1.24901 -0.00838 0.47027
-1.27901 -0.39838 0.53027
-1.28901 -2.05838 0.11027
-1.25901 -2.00838 0.04027
-1.26901 -0.34838 0.60027
-0.97901 1.21162 0.32027
-1.22901 0.71162 0.30027
-0.98901 -2.10838 0.12027
-0.98901 1.14162 0.16027
-0.67901 1.46162 0.13027
-0.90901 -2.05838 0.18027
-0.92901 1.15162 0.28027
-0.93901 -0.38838 0.68027
-0.68901 -2.94838 0.01027
-0.90901 -0.44838 0.78027
-0.88901 -1.06838 0.58027
-0.70901 -1.22838 0.55027
-0.84901 -0.85838 0.55027
1.18099 -0.75838 0.27027
0.28099 -0.62838 0.56027
-0.58901 -0.43838 0.80027
-0.59901 -0.48838 0.80027
-0.60901 1.11162 0.41027
-0.58901 0.73162 0.53027
-0.58901 0.22162 0.55027
-0.58901 0.60162 0.56027
-0.47901 -3.12838 -0.07973
-0.52901 -2.38838 0.18027
-0.55901 -2.10838 0.32027
-0.51901 -1.64838 0.38027
-0.22901 -1.17838 0.66027
-0.39901 -0.51838 1.05027
-0.35901 -2.19838 0.23027
-0.24901 1.06162 0.62027
-0.29901 -2.14838 0.15027
-0.33901 1.12162 0.48027
-0.24901 -0.48838 0.87027
-0.28901 -0.53838 0.81027
-0.01901 1.08162 0.49027
-0.10901 -1.32838 0.61027
-0.12901 0.63162 0.58027
-0.06901 1.78162 -0.00973
-0.09901 -3.03838 -0.12973
-0.05901 -2.24838 0.18027
-0.02901 0.51162 0.53027
0.27099 1.04162 0.38027
0.09099 -3.21838 -0.18973
0.01099 1.02162 0.42027
-0.00901 -2.18838 0.02027
0.05099 -0.52838 0.79027
0.03099 0.63162 0.55027
0.03099 -0.57838 0.85027
0.20099 -1.50838 0.34027
0.21099 -2.28838 -0.01973
0.23099 2.22162 -0.17973
1.18099 -2.39838 -1.98973
0.35099 0.84162 0.20027
0.32099 -0.57838 0.56027
0.30099 -3.17838 -0.35973
0.34099 -1.26838 0.42027
0.32099 0.97162 0.43027
0.33099 -2.23838 0.02027
0.41099 -1.40838 0.33027
0.42099 -2.27838 -0.00973
0.45099 -0.42838 0.65027
0.63099 -2.28838 -0.12973
0.58099 -0.66838 0.49027
0.52099 -2.33838 -0.06973
0.50099 0.42162 0.34027
0.51099 -3.12838 -0.24973
0.57099 -3.11838 -0.42973
0.57099 -1.12838 0.40027
0.59099 0.99162 0.36027
0.62099 0.54162 0.37027
0.60099 0.93162 0.35027
1.17099 2.23162 -0.40973
0.90099 0.88162 0.22027
0.78099 2.13162 -0.31973
0.65099 -0.61838 0.54027
0.78099 0.05162 0.47027
0.73099 1.84162 -0.20973
0.89099 -0.71838 0.41027
0.83099 1.23162 -0.08973
0.81099 -2.37838 -0.20973
0.88099 0.94162 0.20027
0.96099 -1.48838 0.13027
0.92099 -1.34838 0.18027
0.94099 -0.66838 0.33027
0.93099 -2.32838 -0.31973
1.09099 -2.42838 -0.40973
1.07099 0.34162 0.27027
1.31099 -2.46838 -0.84973
1.19099 0.45162 0.17027
1.22099 -2.47838 -2.47973
1.19099 0.84162 0.11027
1.19099 0.90162 0.11027
1.30099 -2.17838 -0.15973
1.25099 2.11162 -3.02973
1.25099 -2.37838 -0.39973
1.28099 -0.71838 0.30027
1.49099 0.85162 -0.05973
1.34099 2.04162 -0.42973
1.38099 0.21162 0.12027
1.54099 -1.16838 0.02027
1.50099 -0.80838 0.17027
1.50099 0.79162 0.03027
1.53099 -1.72838 -0.08973
1.51099 -1.57838 -0.02973
1.52099 -1.44838 0.02027
1.68099 -0.54838 0.26027
1.57099 0.26162 -0.04973
1.62099 -0.76838 0.21027
1.77099 1.17162 -0.30973
1.76099 0.66162 -0.29973
2.06099 -1.65838 -0.23973
1.84099 0.74162 0.01027
1.79099 0.36162 0.03027
1.80099 -0.85838 0.00027
1.82099 0.80162 -0.14973
1.94099 -0.81838 0.07027
2.16099 0.69162 -0.04973
2.12099 -1.53838 -0.19973
2.12099 -0.90838 -0.09973
2.15099 0.17162 -0.07973
2.17099 0.75162 -0.13973
2.26099 -0.86838 -0.11973
2.38099 0.27162 -0.16973
2.44099 -0.44838 -0.15973
2.47099 0.64162 -0.19973
2.51099 0.70162 -0.23973
2.53099 -0.96838 0.07027
2.61099 -0.91838 -0.22973
2.63099 -1.18838 -0.27973
2.67099 0.09162 -0.33973
2.70099 0.08162 -0.22973
2.77099 -0.97838 -2.48973
2.75099 -1.02838 -1.82973
-0.74901 2.63162 -0.09973
-1.49901 2.50162 -0.21973
-1.24901 2.62162 -0.16973
-1.09901 2.73162 -0.27973
-0.94901 2.31162 -0.32973
-0.58901 2.50162 0.04027
-0.51901 2.65162 -0.19973
-0.46901 2.59162 -0.05973
-0.19901 2.55162 -0.05973
-0.33901 2.31162 -0.15973
-0.20901 2.61162 -0.06973
-0.29901 2.48162 -0.24973
-0.06901 3.26162 -0.31973
-0.08901 3.01162 -0.27973
0.35099 2.46162 -0.11973
-0.00901 2.42162 -0.09973
0.08099 2.51162 -0.04973
0.10099 2.56162 0.00027
0.36099 2.52162 -0.09973
0.62099 2.42162 -0.17973
0.58099 2.32162 -0.23973
0.62099 2.48162 -0.27973
2.80099 0.51162 -0.41973
0.92099 2.44162 -0.35973
0.82099 2.43162 -0.32973
0.90099 2.38162 -0.30973
1.15099 2.36162 -3.02973
1.11099 2.30162 -3.06973
1.19099 2.34162 -0.36973
2.93099 -1.06838 -2.54973
2.84099 -1.01838 -0.13973
2.92099 -0.96838 -0.50973
2.97099 0.17162 -0.37973
3.24099 0.00162 -0.47973
