-0.27810 0.40912 0.62041
-2.12810 -3.17088 -0.26959
-1.58810 -3.25088 -2.45959
2.98190 -2.05088 -0.11959
-2.14810 -3.07088 -0.27959
-0.88810 -2.92088 -2.74959
-1.93810 -2.94088 -0.17959
-0.43810 -2.89088 -0.18959
-1.34810 -2.81088 -0.27959
0.73190 -2.75088 -0.18959
0.93190 -2.69088 -0.17959
-1.48810 -2.72088 -0.14959
-2.49810 -2.55088 -0.32959
-1.19810 -2.53088 -0.18959
-0.24810 -2.51088 -0.02959
2.90190 -2.43088 -0.18959
1.44190 -2.37088 -0.26959
0.68190 -2.36088 -0.19959
-1.41810 -2.32088 0.04041
1.97190 -2.30088 -0.16959
1.88190 -2.27088 -0.17959
-2.32810 -2.19088 -0.32959
-0.15810 -2.16088 0.10041
0.81190 -2.09088 0.02041
-2.51810 -2.13088 -0.22959
2.56190 0.39912 -0.15959
-1.20810 -0.90088 0.30041
-2.04810 -1.99088 -0.15959
2.66190 -2.00088 -0.09959
-0.21810 -1.93088 0.01041
-1.25810 -1.76088 0.09041
-0.06810 -1.86088 0.17041
0.51190 -1.77088 -0.03959
1.48190 -1.81088 0.02041
1.14190 -1.77088 -0.00959
0.32190 -1.62088 0.07041
2.87190 -1.65088 -0.19959
-2.25810 -1.60088 -0.13959
2.98190 -1.54088 -0.21959
-1.04810 -1.58088 0.33041
-2.03810 -0.94088 0.02041
0.83190 -1.22088 0.38041
-0.87810 -1.34088 0.28041
-0.86810 -1.43088 0.33041
2.07190 -1.46088 0.01041
1.88190 -1.39088 0.22041
0.29190 -1.23088 0.12041
-1.96810 -1.25088 0.01041
3.02190 -1.27088 -0.23959
-0.41810 -1.17088 0.15041
2.11190 -1.15088 0.17041
2.17190 -1.02088 0.09041
-0.20810 -1.06088 0.49041
-0.20810 0.38912 0.72041
0.81190 -0.24088 0.52041
1.20190 -0.88088 0.36041
0.94190 -0.83088 0.47041
-1.73810 -0.79088 0.13041
1.34190 -0.64088 0.45041
-0.51810 -0.70088 0.37041
-2.18810 -0.73088 0.03041
2.10190 -0.67088 0.05041
-0.22810 -0.65088 0.60041
2.97190 -0.58088 -0.16959
2.54190 -0.60088 -0.04959
-1.38810 -0.56088 0.15041
-2.86810 -0.54088 -1.80959
-2.41810 -0.27088 -0.10959
1.89190 -0.41088 0.19041
-1.33810 -0.46088 0.31041
0.30190 -0.29088 0.60041
2.19190 -0.00088 0.05041
0.54190 -0.12088 0.59041
-2.62810 -0.22088 -0.19959
-1.42810 -0.15088 0.16041
-0.25810 -0.06088 0.72041
1.72190 -0.08088 0.13041
1.19190 -0.08088 0.35041
-2.44810 0.06912 -0.24959
-1.22810 0.08912 0.40041
-2.19810 0.24912 0.06041
0.99190 0.19912 0.45041
2.88190 0.22912 -0.24959
-0.62810 0.30912 0.65041
-0.73810 2.79912 -0.16959
0.08190 0.97912 0.49041
-2.36810 0.41912 -0.12959
0.93190 0.43912 0.44041
0.28190 0.51912 0.66041
1.45190 0.55912 0.29041
-1.29810 0.56912 0.38041
-1.14810 0.96912 0.35041
1.99190 0.80912 -0.01959
0.38190 0.71912 0.55041
2.56190 0.79912 -0.13959
-2.35810 0.73912 -0.06959
-1.64810 0.95912 0.23041
-0.62810 0.88912 0.41041
-1.79810 1.55912 0.11041
1.66190 0.98912 0.21041
2.67190 1.03912 -0.19959
-1.61810 1.05912 0.19041
0.46190 1.17912 0.42041
-0.74810 1.14912 0.38041
-2.03810 1.52912 0.03041
-2.58810 1.21912 -0.09959
-0.67810 1.36912 0.27041
1.76190 1.31912 0.01041
2.16190 1.34912 -0.04959
-0.81810 1.52912 0.22041
-3.15810 1.42912 -2.68959
1.13190 1.38912 0.38041
1.08190 1.52912 0.34041
2.56190 1.45912 -0.13959
-2.62810 1.58912 0.02041
1.75190 1.63912 0.08041
0.97190 1.83912 0.20041
-2.91810 1.74912 -0.13959
0.08190 1.68912 0.19041
1.75190 1.81912 0.10041
-1.79810 1.77912 0.06041
-1.91810 2.00912 -0.05959
-0.92810 1.84912 0.12041
1.73190 1.98912 0.02041
0.11190 2.02912 0.03041
0.60190 2.00912 0.11041
-2.89810 2.07912 -0.13959
-1.73810 2.07912 -0.09959
-0.52810 2.18912 -0.00959
-2.93810 2.17912 -0.11959
0.77190 2.24912 0.11041
-1.66810 2.37912 -0.06959
2.34190 2.30912 -0.15959
0.10190 2.39912 -0.06959
-2.83810 2.40912 -0.27959
2.32190 2.68912 -0.13959
0.87190 2.52912 -0.00959
1.30190 2.46912 -0.06959
-2.79810 2.55912 -0.20959
-0.86810 2.65912 -0.21959
0.28190 2.63912 -0.11959
-0.26810 2.88912 -0.18959
2.26190 2.79912 -0.12959
1.16190 2.87912 -0.08959
2.36190 3.30912 -0.27959
2.30190 3.22912 -0.17959
2.02190 3.27912 -0.22959
