-4.05284 -4.79188 1.85831
-5.66284 -4.42188 0.81831
-5.10284 -4.52188 1.27831
-5.08284 -4.78188 0.97831
-4.74284 -4.37188 1.69831
-4.89284 -6.22188 0.57831
-4.76284 -4.47188 1.63831
-4.80284 -6.07188 0.76831
-4.83284 -6.16188 0.43831
-4.79284 -5.64188 1.03831
-4.51284 -5.13188 1.12831
-4.55284 -4.86188 1.32831
-4.41284 -6.74188 0.67831
-4.42284 -5.76188 1.16831
-4.29284 -6.58188 0.81831
-4.72284 -4.26188 1.58831
-4.03284 -4.59188 1.92831
-5.91284 -4.28188 0.98831
-1.02284 2.04812 0.17831
-1.95284 -4.24188 0.81831
-6.83284 -3.20188 -2.56169
-3.68284 -4.22188 2.06831
-3.74284 -6.23188 0.84831
-4.01284 -5.19188 1.45831
-3.92284 -5.48188 1.26831
-3.76284 -6.32188 0.60831
-3.68284 -4.42188 1.65831
-3.69284 -4.64188 1.75831
-3.58284 -5.83188 0.88831
-3.55284 -7.05188 0.40831
-3.33284 -5.67188 0.79831
-3.16284 -5.36188 1.01831
-3.28284 -5.94188 0.70831
-3.24284 -5.08188 1.28831
-3.20284 -5.98188 0.60831
-2.76284 -4.57188 0.98831
-2.69284 -6.10188 0.30831
-2.72284 -4.78188 1.13831
-2.57284 -4.37188 1.32831
-2.44284 -5.60188 0.52831
-2.43284 -5.99188 0.36831
-2.32284 -5.89188 0.43831
-1.77284 -4.91188 0.43831
-1.82284 -4.73188 0.44831
-6.71284 -3.20188 0.50831
-1.65284 -4.36188 0.76831
-1.46284 -4.52188 0.67831
-1.01284 -4.78188 0.43831
-1.20284 -4.48188 0.43831
-0.79284 -4.43188 0.56831
-0.87284 -4.61188 0.40831
-0.79284 -4.44188 0.30831
-5.28284 -3.82188 1.61831
-4.68284 -4.19188 1.90831
-5.62284 -4.21188 1.06831
-2.38284 -3.85188 1.47831
-1.85284 -4.03188 1.04831
-5.84284 -4.10188 1.01831
-6.26284 -4.06188 0.66831
-1.72284 -4.08188 0.99831
-3.05284 -4.07188 1.49831
-4.15284 -3.89188 2.16831
-5.43284 -3.96188 1.47831
-4.93284 -4.02188 1.81831
-6.15284 -3.89188 0.83831
-1.61284 -3.91188 1.11831
-6.69284 -3.56188 0.62831
-6.26284 -3.79188 1.07831
-5.46284 -3.70188 1.45831
-6.85284 -3.70188 0.49831
-2.52284 -3.57188 1.66831
-0.49284 -3.58188 0.74831
-6.07284 -3.57188 1.02831
-6.86284 -3.27188 -6.13169
-2.39284 -3.42188 1.70831
-5.84284 -3.49188 1.13831
-6.80284 -3.51188 0.71831
-2.66284 -3.48188 2.02831
-1.47284 -3.45188 1.34831
-7.19284 -3.27188 0.24831
-7.29284 -3.37188 -2.27169
-2.44284 -3.31188 1.85831
-3.10284 -3.36188 2.11831
-0.91284 1.98812 -5.27169
-5.34284 -1.87188 0.68831
-1.08284 -2.50188 1.68831
-1.50284 -2.97188 1.64831
-6.66284 -3.13188 -4.69169
-3.43284 -3.17188 2.40831
-6.41284 -3.15188 0.70831
-3.18284 -3.11188 2.27831
-6.62284 -3.08188 -1.56169
-4.60284 -2.97188 1.60831
-3.66284 -3.01188 1.98831
-0.83284 -3.05188 1.06831
-3.43284 -3.00188 2.28831
-4.14284 -2.56188 1.51831
-0.39284 -2.76188 1.04831
-3.66284 -2.83188 1.93831
-3.14284 -2.95188 2.19831
-1.76284 -2.90188 1.67831
-5.75284 -2.77188 0.94831
-2.62284 -2.81188 2.30831
-0.44284 -2.78188 1.14831
-3.76284 -2.58188 2.14831
-4.19284 -2.71188 1.57831
-2.70284 -2.74188 2.27831
-3.94284 -2.59188 1.71831
-4.05284 -2.63188 1.68831
-3.71284 -2.60188 1.76831
-5.58284 -1.93188 -2.71169
-0.59284 -2.40188 1.31831
-4.91284 -2.42188 1.40831
-4.72284 -2.41188 1.15831
-2.19284 -2.32188 2.26831
-5.29284 -2.36188 0.81831
-0.75284 -2.33188 1.57831
-6.06284 -2.25188 0.80831
-4.62284 -2.28188 1.15831
-4.26284 -2.28188 1.23831
-5.78284 -2.25188 -6.31169
-4.67284 -2.27188 1.07831
-1.11284 -2.25188 1.77831
-4.80284 -1.94188 1.02831
-3.46284 -2.13188 1.82831
-1.31284 -2.23188 1.92831
-5.56284 -2.15188 -5.78169
-5.71284 -2.09188 -3.35169
-5.23284 -2.12188 0.64831
-1.25284 -1.94188 1.99831
-5.41284 -2.00188 -6.32169
-5.09284 -2.02188 0.68831
-4.80284 -1.97188 0.56831
-3.97284 -0.63188 -4.05169
-4.43284 -1.32188 0.78831
-5.25284 -1.79188 -3.73169
-1.08284 -1.87188 2.03831
-1.55284 -1.82188 2.30831
-2.10284 -1.72188 2.20831
-1.81284 -1.78188 2.30831
-5.38284 -1.78188 -6.42169
-2.06284 -1.76188 2.10831
-3.26284 -1.52188 1.49831
-1.82284 -1.57188 2.11831
-5.36284 -1.63188 0.07831
-0.47284 -1.59188 1.89831
-2.68284 -1.40188 1.60831
-2.32284 -1.50188 1.84831
-1.66284 -1.41188 2.18831
-2.12284 -1.48188 1.91831
-3.21284 -0.83188 0.90831
-2.67284 -1.15188 1.43831
-1.01284 -1.21188 2.17831
-2.30284 -1.30188 1.75831
-2.83284 -1.20188 1.44831
-3.01284 -1.18188 1.23831
-3.24284 -0.89188 1.24831
-3.27284 -1.05188 0.94831
-2.74284 -1.05188 1.24831
-3.34284 -0.91188 0.95831
-2.08284 -1.05188 1.93831
-4.35284 -0.95188 0.54831
-0.55284 -0.64188 2.11831
-4.38284 -0.76188 -6.50169
-3.98284 -0.80188 -6.35169
-3.24284 -0.76188 0.92831
-4.14284 -0.78188 -4.49169
-1.10284 -0.78188 2.44831
-3.76284 -0.66188 -6.07169
-4.10284 -0.70188 -6.37169
-3.95284 -0.73188 -2.88169
-3.88284 -0.69188 0.41831
-4.03284 -0.68188 -1.87169
-2.56284 0.70812 -4.01169
-3.76284 -0.50188 0.43831
-3.87284 -0.61188 0.53831
-2.49284 -0.59188 1.41831
-3.81284 -0.54188 -2.57169
-3.87284 -0.53188 -1.60169
-3.83284 -0.39188 0.72831
-3.71284 -0.49188 0.47831
-1.40284 0.04812 1.30831
-1.27284 -0.26188 1.81831
-1.15284 -0.28188 1.62831
-0.90284 -0.24188 1.98831
-0.75284 -0.01188 2.15831
-2.43284 -0.06188 1.04831
-1.69284 0.70812 0.83831
-2.20284 0.38812 0.88831
-1.77284 0.08812 1.13831
-0.77284 0.18812 1.72831
-0.82284 0.14812 1.96831
-2.53284 0.37812 -5.76169
-1.20284 0.21812 1.42831
-1.95284 0.37812 0.86831
-2.48284 0.68812 0.22831
-2.51284 0.45812 -2.27169
-1.22284 0.43812 1.24831
-2.38284 0.44812 0.57831
-2.47284 0.51812 -6.25169
-1.71284 0.50812 0.96831
-2.45284 0.58812 -3.12169
-2.72284 0.63812 -6.44169
-1.25284 0.70812 1.30831
-2.52284 0.73812 -6.45169
-2.22284 0.79812 0.51831
-2.37284 0.78812 -4.30169
-2.43284 0.78812 -1.53169
-2.27284 0.88812 -1.88169
-2.40284 0.87812 0.64831
-2.16284 0.96812 0.42831
-1.59284 1.22812 0.80831
-0.53284 1.15812 1.35831
-0.50284 1.73812 0.78831
-1.71284 1.36812 0.51831
-0.65284 1.59812 0.76831
-0.81284 1.64812 0.81831
-1.11284 1.76812 -4.03169
-1.00284 1.86812 -6.33169
-1.23284 1.94812 0.12831
-0.93284 1.89812 -3.46169
0.13716 2.75812 -4.65169
1.13716 -2.86188 0.54831
-0.81284 2.10812 -2.62169
-0.80284 2.13812 -4.85169
-0.77284 2.27812 0.28831
-0.70284 2.22812 -2.46169
-0.67284 2.38812 0.22831
1.12716 -1.14188 1.18831
-0.13284 -0.45188 2.38831
-0.18284 -0.36188 2.20831
-0.33284 -0.59188 2.33831
-0.38284 -3.12188 0.91831
0.11716 -3.21188 0.42831
-0.00284 -2.68188 0.92831
-0.10284 -2.01188 1.47831
-0.08284 -1.37188 1.58831
0.05716 -2.85188 0.72831
0.01716 -2.82188 0.87831
0.02716 -0.96188 1.99831
0.41716 -3.33188 0.38831
0.18716 -1.10188 1.95831
0.21716 -0.41188 2.10831
0.32716 -3.26188 0.28831
0.38716 -1.04188 1.92831
1.09716 -1.68188 0.95831
0.77716 -3.28188 0.45831
0.48716 -0.81188 1.75831
0.75716 -3.29188 0.41831
0.64716 -1.74188 1.22831
0.66716 -3.26188 0.32831
0.85716 -1.52188 0.98831
0.85716 -2.14188 0.85831
0.86716 -0.86188 1.52831
0.86716 -0.59188 1.95831
1.51716 -1.31188 0.85831
1.19716 -1.30188 1.03831
1.21716 -1.57188 1.01831
1.80716 -0.72188 1.19831
1.76716 -1.90188 0.57831
1.79716 -1.68188 0.36831
1.88716 -1.78188 0.37831
1.84716 -2.28188 0.44831
1.91716 -2.20188 0.39831
1.97716 -2.06188 0.37831
2.14716 -1.74188 0.33831
2.24716 -1.32188 0.62831
2.77716 -0.86188 0.69831
2.69716 -0.37188 0.96831
2.91716 -0.59188 0.69831
3.36716 -0.65188 0.54831
3.80716 -0.58188 0.41831
3.82716 -0.53188 0.34831
0.12716 2.94812 -6.32169
-0.26284 1.03812 1.67831
-0.29284 -0.09188 2.04831
0.05716 2.18812 1.22831
-0.25284 1.97812 0.68831
-0.22284 2.13812 0.71831
0.03716 1.41812 1.26831
-0.10284 0.54812 2.07831
-0.04284 1.24812 1.32831
4.89716 4.98812 -2.40169
2.43716 4.86812 -5.82169
0.73716 1.42812 1.63831
0.23716 1.70812 1.19831
0.21716 2.78812 -1.48169
0.25716 1.85812 1.05831
0.27716 2.90812 -3.86169
0.71716 1.60812 1.50831
0.58716 1.08812 1.73831
0.51716 1.41812 1.59831
0.46716 -0.06188 2.41831
0.47716 2.68812 0.75831
0.57716 0.86812 1.79831
0.70716 2.66812 0.99831
0.65716 2.78812 0.64831
0.61716 0.96812 2.04831
1.09716 2.31812 1.25831
0.76716 3.53812 -6.29169
0.88716 3.63812 -3.79169
0.89716 2.54812 1.38831
1.07716 0.84812 2.45831
1.01716 3.70812 -1.40169
0.92716 0.38812 2.13831
0.96716 3.63812 -6.24169
1.05716 3.73812 -3.90169
1.29716 3.87812 0.48831
1.18716 3.79812 -1.77169
1.14716 1.36812 2.00831
1.11716 0.77812 2.27831
1.17716 2.47812 1.23831
1.19716 0.50812 2.24831
1.18716 2.01812 1.83831
1.22716 3.71812 0.56831
1.22716 1.13812 2.06831
2.43716 5.08812 -2.69169
1.83716 0.31812 1.82831
1.53716 3.95812 -6.02169
1.39716 2.94812 1.13831
1.53716 4.04812 -2.50169
1.53716 4.14812 -6.33169
1.57716 -0.21188 1.62831
1.62716 1.08812 2.28831
1.83716 1.19812 2.39831
1.70716 0.78812 2.32831
1.69716 1.95812 1.78831
1.64716 4.04812 0.44831
1.70716 4.09812 -4.03169
1.71716 4.06812 0.77831
1.71716 2.15812 1.72831
1.78716 0.79812 2.16831
1.72716 3.42812 0.97831
1.74716 3.62812 0.89831
2.23716 3.70812 1.03831
1.99716 4.16812 0.98831
1.85716 0.22812 1.50831
1.86716 2.47812 1.73831
1.98716 4.04812 0.85831
2.22716 3.14812 1.35831
2.03716 -0.03188 1.55831
2.05716 3.73812 1.32831
2.18716 0.66812 1.78831
2.18716 3.36812 1.29831
2.27716 0.63812 1.65831
2.26716 1.82812 2.16831
2.23716 2.35812 2.20831
2.29716 1.85812 2.26831
2.34716 1.56812 2.09831
4.88716 5.88812 -2.85169
3.53716 -0.23188 0.52831
2.71716 2.86812 1.74831
2.57716 3.68812 1.09831
2.48716 0.31812 1.44831
2.64716 0.66812 1.51831
2.61716 5.04812 -5.11169
2.61716 -0.18188 1.13831
2.64716 5.20812 -2.44169
2.64716 3.10812 1.65831
2.94716 4.35812 0.67831
2.81716 5.11812 -5.91169
2.78716 3.89812 0.94831
2.72716 2.72812 1.81831
2.81716 5.19812 -2.43169
2.78716 0.07812 0.91831
2.94716 1.40812 1.95831
2.84716 3.33812 1.50831
2.88716 0.21812 1.15831
2.94716 5.26812 -5.03169
2.90716 5.29812 -1.89169
3.20716 2.57812 2.10831
2.98716 2.28812 2.28831
2.97716 1.03812 1.78831
2.99716 5.30812 -2.16169
3.19716 -0.17188 0.72831
3.13716 5.67812 -2.13169
3.09716 2.83812 1.96831
3.09716 3.37812 1.66831
3.16716 3.57812 1.82831
3.13716 1.06812 1.65831
3.25716 0.48812 0.99831
3.24716 1.70812 1.70831
3.30716 3.97812 1.56831
3.29716 5.41812 -2.12169
3.45716 4.81812 -2.09169
3.39716 2.17812 1.87831
3.42716 5.82812 -2.24169
3.47716 2.95812 1.83831
3.46716 4.47812 -2.06169
4.88716 1.63812 0.70831
4.16716 6.57812 -6.18169
3.85716 2.14812 1.65831
3.67716 3.02812 1.88831
3.60716 2.52812 2.02831
3.65716 4.59812 -2.13169
3.61716 0.52812 1.01831
3.64716 4.90812 -2.16169
3.82716 3.73812 0.96831
3.72716 0.90812 1.24831
3.79716 4.29812 -1.98169
3.72716 -0.07188 0.37831
4.13716 3.41812 1.48831
4.05716 4.10812 -2.15169
3.93716 3.81812 -1.96169
3.89716 5.14812 -2.15169
4.01716 0.50812 0.83831
3.95716 2.14812 1.70831
3.95716 2.53812 1.83831
4.13716 6.35812 -2.64169
4.10716 6.29812 -5.94169
4.08716 0.88812 1.04831
4.43716 1.99812 0.87831
4.19716 4.35812 -2.29169
4.16716 1.54812 1.05831
4.17716 4.27812 -2.12169
4.24716 2.07812 1.37831
4.20716 2.50812 1.66831
4.24716 6.69812 -6.27169
4.42716 6.40812 -3.10169
4.32716 5.49812 -2.33169
4.31716 4.48812 -2.38169
4.32716 5.26812 -2.26169
4.35716 0.30812 0.33831
4.33716 6.38812 -5.81169
4.33716 2.61812 1.72831
4.84716 2.03812 0.62831
4.61716 6.52812 -5.40169
4.53716 1.67812 1.00831
4.44716 3.71812 -1.96169
4.50716 0.40812 0.52831
4.59716 5.65812 -2.54169
4.56716 0.39812 0.25831
4.61716 3.75812 -2.12169
4.61716 3.28812 -1.96169
4.72716 3.92812 -2.23169
5.19716 0.72812 0.39831
4.91716 3.90812 -2.40169
4.97716 2.41812 0.43831
4.94716 4.09812 -2.36169
4.96716 4.11812 -2.28169
5.18716 1.86812 0.26831
5.10716 3.63812 -2.19169
5.10716 1.39812 0.49831
5.16716 1.24812 0.54831
5.47716 5.31812 -2.66169
5.32716 5.11812 -2.55169
5.20716 3.38812 -2.26169
5.24716 3.59812 -2.24169
5.43716 1.26812 0.41831
5.43716 3.56812 -2.30169
5.63716 3.12812 -2.04169
5.55716 1.81812 0.28831
5.50716 2.00812 -1.98169
5.60716 3.68812 -2.51169
5.59716 3.48812 -2.37169
6.27716 3.45812 -2.44169
5.75716 1.63812 -2.15169
5.65716 1.25812 -2.56169
5.77716 3.02812 -2.28169
5.78716 3.25812 -2.33169
5.88716 4.82812 -2.60169
5.83716 2.34812 -2.07169
6.23716 3.29812 -2.53169
6.15716 3.94812 -2.60169
6.34716 2.66812 -2.40169
6.31716 1.65812 -2.50169
6.30716 2.92812 -2.38169
6.33716 3.02812 -2.61169
6.45716 3.41812 -2.56169
6.63716 2.97812 -2.36169
6.46716 1.87812 -2.72169
6.93716 2.27812 -2.62169
6.81716 2.59812 -2.42169
6.87716 2.89812 -2.64169
7.15716 3.36812 -4.98169
6.96716 2.18812 -2.72169
7.02716 2.60812 -2.61169
7.39716 3.27812 -3.04169
7.63716 2.81812 -2.55169
