-3.58875 0.67299 -0.12695
-3.43875 -0.23701 -0.19695
-3.38875 0.47299 0.04305
-3.18875 0.00299 -0.11695
-3.13875 -0.48701 -0.09695
-3.10875 -0.17701 -0.01695
-3.10875 -0.81701 -0.15695
-3.09875 0.67299 0.11305
-3.00875 0.02299 -0.03695
-2.84875 -0.31701 0.03305
-2.73875 -0.43701 -0.06695
-2.72875 0.01299 0.02305
-2.70875 -1.56701 -0.23695
-2.65875 -1.67701 -0.13695
-2.64875 -0.24701 0.10305
-2.58875 -0.91701 0.02305
-2.58875 -1.32701 -0.02695
-2.55875 0.73299 0.33305
-2.41875 0.19299 0.19305
-2.33875 -2.32701 -0.17695
-2.30875 -0.26701 0.24305
-2.27875 -1.83701 -0.01695
-2.23875 -0.73701 0.00305
-2.19875 -0.21701 0.23305
-2.17875 -0.78701 0.19305
-2.13875 -1.58701 0.03305
-2.07875 0.24299 0.46305
-2.05875 -2.80701 -0.16695
-2.05875 -1.49701 0.07305
-2.04875 -1.25701 0.07305
-2.00875 -2.72701 -6.31695
-1.99875 -0.02701 0.32305
-1.98875 -2.13701 -0.10695
-1.91875 -1.77701 0.04305
-1.90875 -3.10701 -3.01695
-1.86875 -0.65701 0.17305
-1.82875 0.40299 0.44305
-1.81875 -0.47701 0.32305
-1.79875 -2.25701 0.01305
-1.75875 -1.71701 0.08305
-1.72875 -1.58701 0.17305
-1.69875 0.17299 0.46305
-1.66875 -2.76701 -0.04695
-1.65875 -1.61701 0.17305
-1.59875 -2.75701 -0.05695
-1.56875 -3.26701 -0.05695
-1.56875 -0.28701 0.41305
-1.54875 -3.23701 -0.06695
-1.46875 -3.05701 -0.03695
-1.44875 -0.80701 0.39305
-1.41875 0.28299 0.54305
-1.41875 -3.73701 -0.16695
-1.39875 -3.94701 -6.23695
-1.39875 0.92299 0.68305
-1.35875 -1.87701 0.26305
-1.32875 -3.97701 -0.06695
-1.31875 -0.26701 0.56305
-1.31875 -3.57701 -0.05695
-1.29875 -4.08701 -6.55695
-1.26875 -4.26701 -2.68695
-1.26875 -1.47701 0.20305
-1.19875 -1.79701 0.27305
-1.18875 -2.33701 0.25305
-1.18875 0.28299 0.68305
-1.13875 -3.04701 0.09305
-1.13875 -2.80701 -0.00695
-1.13875 -0.50701 0.57305
-1.11875 -4.33701 -6.44695
-1.08875 -4.10701 -6.51695
-1.06875 -4.55701 -2.17695
-1.04875 -1.54701 0.35305
-1.03875 -2.84701 0.09305
-1.02875 0.34299 0.62305
-0.99875 -1.32701 0.35305
-0.98875 -0.07701 0.64305
-0.97875 -0.26701 0.63305
-0.94875 -2.76701 0.24305
-0.93875 -0.70701 0.59305
-0.91875 -4.50701 -0.13695
-0.91875 -2.24701 0.21305
-0.89875 -0.51701 0.62305
-0.86875 -1.75701 0.35305
-0.73875 -5.19701 -5.35695
-0.69875 -3.72701 0.09305
-0.67875 -4.72701 -0.14695
-0.67875 -1.69701 0.51305
-0.64875 -3.49701 0.08305
-0.60875 -3.29701 0.09305
-0.60875 0.91299 0.95305
-0.57875 -1.65701 0.37305
-0.56875 -4.33701 0.04305
-0.54875 -5.49701 -4.08695
-0.53875 -4.67701 -0.08695
-0.51875 -0.33701 0.81305
-0.48875 -4.44701 0.02305
-0.48875 -5.25701 -0.20695
-0.46875 -0.46701 0.65305
-0.46875 -4.25701 0.10305
-0.45875 0.88299 0.92305
-0.44875 -4.70701 0.04305
-0.42875 -2.70701 0.37305
-0.41875 -1.91701 0.51305
-0.40875 -0.30701 0.77305
-0.40875 -3.09701 0.31305
-0.37875 -4.73701 0.04305
-0.35875 0.10299 0.94305
-0.35875 -0.05701 0.86305
-4.57875 2.41299 -0.05695
-4.56875 2.64299 -4.69695
-4.50875 2.48299 -0.07695
-4.40875 2.60299 0.09305
-4.40875 2.62299 0.04305
-4.34875 2.41299 0.12305
-4.34875 2.02299 0.04305
-4.30875 2.79299 0.27305
-4.29875 2.50299 0.05305
-4.28875 1.28299 -0.13695
-4.25875 1.48299 -0.07695
-4.19875 2.92299 -6.14695
-4.18875 1.04299 -0.18695
-4.09875 1.02299 -0.09695
-3.98875 1.76299 0.16305
-3.87875 2.43299 0.23305
-3.75875 1.15299 0.00305
-3.64875 2.37299 0.28305
-3.62875 1.45299 0.07305
-3.61875 2.34299 0.22305
-3.60875 2.68299 0.41305
-3.56875 1.35299 0.08305
-3.52875 2.56299 0.41305
-3.50875 1.74299 0.20305
-3.35875 1.76299 0.13305
-3.35875 1.69299 0.20305
-3.32875 2.57299 0.38305
-3.28875 2.75299 0.51305
-3.26875 1.00299 0.09305
-3.20875 1.23299 0.15305
-3.17875 3.14299 0.62305
-3.10875 3.20299 0.63305
-3.05875 2.72299 0.58305
-3.03875 1.01299 0.27305
-2.92875 2.16299 0.48305
-2.91875 3.28299 0.56305
-2.89875 2.72299 0.63305
-2.86875 1.11299 0.29305
-2.82875 3.33299 -6.04695
-2.80875 1.72299 0.34305
-2.75875 1.67299 0.32305
-2.70875 2.33299 0.54305
-2.67875 1.18299 0.35305
-2.64875 3.74299 0.97305
-2.64875 1.07299 0.40305
-2.61875 2.71299 0.64305
-2.60875 2.52299 0.64305
-2.54875 1.31299 0.38305
-2.44875 3.09299 0.85305
-2.38875 1.02299 0.34305
-2.33875 0.96299 0.40305
-2.26875 2.70299 0.80305
-2.25875 2.53299 0.76305
-2.24875 2.53299 0.60305
-2.19875 2.12299 0.70305
-2.15875 1.18299 0.56305
-2.11875 4.02299 0.84305
-2.04875 2.61299 0.71305
-1.99875 3.72299 0.75305
-1.97875 3.96299 0.80305
-1.96875 1.06299 0.60305
-1.96875 3.88299 0.83305
-1.94875 1.97299 0.77305
-1.94875 1.13299 0.57305
-1.94875 3.28299 0.88305
-1.91875 4.02299 0.78305
-1.90875 1.01299 0.44305
-1.76875 2.29299 0.84305
-1.71875 2.48299 0.92305
-1.70875 4.27299 -5.67695
-1.68875 2.27299 0.93305
-1.67875 3.87299 0.64305
-1.67875 1.97299 0.72305
-1.61875 3.72299 0.79305
-1.52875 1.25299 0.72305
-1.43875 1.27299 0.84305
-1.41875 1.86299 0.89305
-1.38875 4.14299 0.62305
-1.35875 3.92299 0.57305
-1.23875 3.57299 0.62305
-1.17875 1.95299 0.90305
-1.16875 2.69299 0.71305
-1.15875 2.49299 0.86305
-1.14875 3.38299 0.52305
-1.13875 3.13299 0.65305
-1.10875 2.93299 0.66305
-1.09875 2.98299 0.61305
-1.08875 1.14299 0.89305
-1.08875 3.15299 0.60305
-1.05875 1.03299 0.80305
-1.04875 4.46299 -6.14695
-1.00875 1.21299 0.88305
-0.91875 4.04299 0.34305
-0.87875 2.11299 0.78305
-0.85875 1.92299 0.78305
-0.76875 3.94299 0.43305
-0.73875 2.27299 0.67305
-0.73875 1.24299 0.78305
-0.67875 2.48299 0.62305
-0.64875 3.87299 0.33305
-0.64875 3.92299 0.39305
-0.62875 1.21299 0.75305
-0.61875 1.10299 0.84305
-0.51875 3.71299 0.36305
-0.50875 4.61299 -6.03695
-0.49875 4.10299 0.21305
-0.47875 1.23299 0.78305
-0.43875 2.92299 0.48305
-0.41875 4.18299 0.26305
-0.40875 4.40299 0.13305
-0.39875 1.29299 0.66305
-0.38875 2.91299 0.50305
-0.35875 2.72299 0.38305
0.36125 -4.91701 0.21305
0.38125 -4.71701 0.22305
0.07125 -4.66701 0.12305
0.86125 -4.58701 0.39305
-0.04875 -4.54701 0.20305
0.58125 -4.48701 0.33305
1.44125 -4.43701 0.64305
0.44125 -4.38701 0.29305
1.67125 -4.28701 0.88305
0.31125 -4.23701 0.28305
0.59125 -4.13701 0.32305
1.39125 -4.03701 0.74305
2.08125 -3.99701 0.89305
2.41125 -3.97701 0.81305
0.64125 -3.97701 0.47305
1.60125 -3.93701 0.79305
0.65125 -3.88701 0.59305
0.72125 -3.85701 0.57305
2.28125 -3.84701 0.94305
1.62125 -3.70701 0.79305
-0.17875 -3.68701 0.26305
0.81125 -3.60701 0.63305
3.08125 -3.56701 0.46305
2.56125 -3.49701 0.68305
-0.25875 -3.47701 0.21305
2.73125 -3.43701 0.77305
3.25125 -3.42701 0.57305
2.20125 -3.41701 0.88305
3.20125 -3.41701 0.51305
1.23125 -3.37701 0.76305
0.30125 -3.34701 0.52305
1.59125 -3.31701 0.85305
2.91125 -3.20701 0.61305
1.71125 -3.18701 0.92305
3.87125 -3.18701 0.38305
1.54125 -3.16701 0.91305
2.54125 -3.16701 0.66305
3.57125 -3.15701 0.33305
0.65125 -3.14701 0.63305
0.66125 -3.11701 0.58305
-0.24875 -3.09701 0.34305
-0.23875 -3.07701 0.33305
1.14125 -3.04701 0.80305
1.83125 -3.00701 0.95305
0.39125 -2.99701 0.51305
2.01125 -2.97701 0.80305
3.10125 -2.97701 0.43305
3.17125 -2.96701 0.44305
0.66125 -2.96701 0.64305
0.95125 -2.94701 0.75305
-0.03875 -2.93701 0.51305
1.35125 -2.93701 0.87305
2.31125 -2.91701 0.70305
-0.05875 -2.90701 0.47305
0.39125 -2.88701 0.62305
2.02125 -2.83701 0.83305
3.85125 -2.79701 0.25305
1.66125 -2.75701 0.81305
4.14125 -2.70701 0.02305
4.48125 -2.68701 -0.03695
2.29125 -2.67701 0.61305
0.72125 -2.64701 0.63305
2.90125 -2.63701 0.47305
3.47125 -2.47701 0.20305
3.76125 -2.43701 0.14305
2.47125 -2.42701 0.59305
4.52125 -2.41701 -0.11695
2.29125 -2.31701 0.55305
1.50125 -2.26701 0.78305
-0.28875 -2.22701 0.48305
3.63125 -2.16701 0.14305
0.89125 -2.07701 0.95305
3.35125 -2.05701 0.17305
4.69125 -2.02701 -0.20695
3.67125 -2.02701 0.11305
0.77125 -2.02701 0.94305
3.62125 -2.01701 0.14305
4.67125 -2.01701 -3.22695
1.59125 -2.01701 0.81305
0.14125 -2.01701 0.68305
2.56125 -1.99701 0.46305
1.50125 -1.98701 0.79305
-0.13875 -1.98701 0.48305
0.50125 -1.95701 0.84305
1.42125 -1.94701 0.84305
1.10125 -1.94701 0.92305
4.65125 -1.93701 -3.11695
0.15125 -1.89701 0.75305
0.91125 -1.83701 0.89305
1.93125 -1.83701 0.59305
1.76125 -1.82701 0.73305
2.96125 -1.81701 0.25305
0.00125 -1.80701 0.68305
3.98125 -1.80701 -0.08695
4.03125 -1.77701 0.00305
3.59125 -1.77701 0.09305
2.83125 -1.75701 0.32305
1.62125 -1.73701 0.69305
2.58125 -1.73701 0.37305
0.45125 -1.71701 0.88305
2.87125 -1.70701 0.30305
1.48125 -1.65701 0.65305
0.97125 -1.63701 0.89305
2.65125 -1.62701 0.37305
2.15125 -1.61701 0.48305
0.72125 -1.61701 0.95305
3.30125 -1.60701 0.12305
4.45125 -1.59701 -0.22695
-0.04875 -1.59701 0.69305
4.28125 -1.45701 -0.28695
2.22125 -1.43701 0.46305
4.26125 -1.42701 -0.12695
2.56125 -1.40701 0.34305
2.86125 -1.35701 0.20305
-0.18875 -1.26701 0.74305
4.30125 -1.25701 -0.22695
0.50125 -1.20701 0.90305
3.38125 -1.17701 0.07305
0.64125 -1.09701 0.92305
-0.10875 -1.04701 0.80305
1.69125 -1.00701 0.54305
0.70125 -0.99701 0.93305
1.33125 -0.99701 0.67305
1.96125 -0.96701 0.39305
-0.12875 -0.93701 0.79305
0.84125 -0.92701 0.88305
-0.10875 -0.89701 0.84305
1.51125 -0.83701 0.63305
3.34125 -0.77701 -0.00695
1.75125 -0.74701 0.38305
3.39125 -0.71701 -0.09695
2.04125 -0.69701 0.32305
3.19125 -0.59701 -0.00695
2.13125 -0.58701 0.36305
2.40125 -0.58701 0.24305
1.07125 -0.57701 0.67305
0.04125 -0.55701 0.86305
3.62125 -0.54701 -0.25695
3.40125 -0.51701 -0.11695
1.96125 -0.43701 0.41305
3.05125 -0.40701 0.04305
1.86125 -0.37701 0.30305
0.62125 -0.36701 0.75305
3.58125 -0.36701 -0.14695
-0.17875 -0.32701 0.70305
0.55125 -0.31701 0.75305
1.60125 -0.30701 0.38305
2.61125 -0.29701 0.11305
3.63125 -0.29701 -0.16695
0.79125 -0.26701 0.64305
1.07125 -0.23701 0.57305
3.13125 -0.16701 -0.03695
0.02125 -0.12701 0.91305
1.22125 -0.10701 0.46305
3.53125 -0.09701 -0.17695
2.38125 -0.09701 0.15305
0.97125 -0.09701 0.55305
0.38125 -0.08701 0.83305
1.24125 -0.03701 0.47305
1.09125 0.00299 0.56305
2.49125 0.02299 0.05305
2.84125 0.10299 -0.03695
0.59125 0.10299 0.66305
1.25125 0.18299 0.52305
2.51125 0.21299 0.09305
3.07125 0.25299 -0.10695
2.77125 0.29299 -0.07695
2.14125 0.44299 0.13305
-0.10875 0.47299 0.79305
3.38125 0.49299 -3.56695
0.19125 0.50299 0.77305
0.17125 0.56299 0.70305
1.71125 0.56299 0.31305
0.43125 0.62299 0.60305
2.03125 0.76299 0.05305
1.60125 0.76299 0.22305
2.75125 0.84299 -0.13695
2.88125 0.84299 -0.15695
1.68125 0.86299 0.22305
0.62125 0.87299 0.55305
0.12125 0.91299 0.71305
1.97125 0.95299 0.08305
1.60125 0.95299 0.15305
0.84125 0.99299 0.47305
-0.08875 1.02299 0.70305
0.95125 1.03299 0.37305
2.00125 1.04299 0.01305
3.02125 1.05299 -0.30695
2.55125 1.08299 -0.09695
1.34125 1.10299 0.22305
0.11125 1.11299 0.65305
0.34125 1.12299 0.52305
2.71125 1.18299 -5.17695
0.99125 1.19299 0.44305
0.68125 1.23299 0.47305
1.86125 1.24299 0.09305
2.74125 1.24299 -5.45695
2.81125 1.27299 -0.23695
2.89125 1.39299 -5.46695
1.23125 1.42299 0.13305
1.89125 1.46299 0.00305
0.70125 1.49299 0.37305
1.45125 1.56299 0.20305
1.16125 1.60299 0.17305
0.70125 1.68299 0.30305
2.67125 1.73299 -5.52695
2.64125 1.83299 -0.29695
2.08125 1.89299 -3.97695
2.19125 1.90299 -0.22695
-0.12875 1.90299 0.57305
0.59125 1.99299 0.36305
2.07125 2.06299 -5.42695
0.44125 2.07299 0.29305
0.09125 2.14299 0.47305
0.73125 2.20299 0.25305
1.40125 2.24299 0.00305
-0.20875 2.24299 0.44305
0.35125 2.26299 0.30305
0.36125 2.26299 0.33305
1.85125 2.38299 -0.17695
2.15125 2.39299 -0.40695
2.02125 2.41299 -0.22695
-0.19875 2.42299 0.44305
1.30125 2.46299 0.01305
0.07125 2.47299 0.41305
1.64125 2.49299 -0.11695
0.36125 2.50299 0.25305
1.39125 2.50299 -0.03695
1.20125 2.55299 0.06305
1.30125 2.63299 -0.04695
0.01125 2.70299 0.28305
1.16125 2.71299 -0.01695
0.34125 3.00299 0.23305
1.38125 3.04299 -0.13695
1.20125 3.08299 -0.13695
0.94125 3.13299 -0.12695
-0.16875 3.16299 0.35305
0.47125 3.21299 0.15305
1.61125 3.23299 -5.90695
0.40125 3.36299 0.07305
1.39125 3.51299 -0.14695
0.94125 3.56299 -0.02695
1.63125 3.68299 -0.32695
0.56125 3.69299 0.00305
0.58125 3.70299 -0.04695
0.40125 3.73299 0.01305
0.03125 3.87299 -0.00695
0.40125 3.89299 -0.04695
1.41125 3.89299 -0.25695
1.23125 3.91299 -3.14695
0.47125 3.93299 0.00305
0.09125 4.00299 0.15305
1.07125 4.01299 -5.83695
1.40125 4.03299 -6.09695
0.24125 4.05299 -0.00695
0.21125 4.23299 0.09305
-0.21875 4.35299 0.09305
1.13125 4.54299 -0.27695
0.68125 4.57299 -0.16695
0.87125 4.59299 -0.28695
0.75125 4.62299 -3.20695
0.50125 4.77299 -5.94695
0.87125 4.81299 -6.13695
-0.14875 4.98299 0.14305
0.28125 5.09299 -0.11695
0.59125 5.14299 -0.37695
0.49125 5.23299 -0.33695
-0.03875 5.23299 0.09305
0.57125 5.32299 -0.32695
