0.56713 -12.08333 -0.31068
-0.06287 -11.88333 -0.14068
0.05713 -11.67333 -0.16068
0.49713 -11.65333 -6.12068
-1.03287 -11.60333 0.39932
-1.28287 -11.56333 0.44932
0.49713 -11.52333 -0.30068
-0.89287 -11.51333 0.33932
0.14713 -11.44333 -0.17068
-0.29287 -11.37333 0.06932
-1.00287 -11.35333 0.32932
-1.85287 -11.34333 0.77932
0.04713 -11.33333 -6.08068
-2.14287 -11.27333 0.83932
0.27713 -11.27333 -0.08068
0.61713 -11.24333 -6.10068
-0.35287 -11.23333 0.10932
-1.08287 -11.22333 0.48932
0.00713 -11.22333 -0.08068
0.15713 -11.20333 0.00932
-1.51287 -11.17333 0.62932
-1.79287 -11.15333 -6.03068
-2.66287 -11.11333 1.07932
-2.28287 -11.09333 -6.09068
0.07713 -11.08333 -0.14068
-1.89287 -11.06333 0.74932
-0.92287 -11.05333 0.27932
-3.13287 -10.99333 -6.17068
-1.18287 -10.99333 0.49932
-2.09287 -10.96333 0.96932
-2.48287 -10.93333 -6.08068
-2.67287 -10.92333 1.13932
-2.43287 -10.90333 1.06932
-3.22287 -10.89333 -6.15068
-1.81287 -10.88333 0.70932
-0.49287 -10.87333 0.13932
-1.79287 -10.81333 0.78932
-3.62287 -10.80333 1.23932
-3.51287 -10.75333 1.23932
-3.06287 -10.74333 1.26932
-2.69287 -10.72333 1.14932
-4.12287 -10.71333 -6.09068
-1.46287 -10.68333 0.69932
-2.51287 -10.67333 1.10932
-4.02287 -10.65333 1.18932
-1.72287 -10.62333 0.74932
-4.17287 -10.61333 0.90932
-4.47287 -10.56333 0.85932
-3.67287 -10.53333 1.19932
-4.89287 -10.41333 -5.91068
-3.94287 -10.38333 -6.10068
-0.14287 -10.37333 0.15932
-5.03287 -10.34333 0.63932
-4.76287 -10.31333 0.74932
-0.26287 -10.30333 0.23932
-5.65287 -10.26333 -6.02068
-5.42287 -10.22333 -6.02068
-4.26287 -10.17333 1.01932
-6.06287 -10.13333 -5.93068
0.18713 -10.09333 0.20932
-5.84287 -10.09333 0.26932
-4.96287 -10.09333 0.65932
-2.51287 -10.06333 1.23932
-0.72287 -9.91333 0.32932
0.38713 -9.88333 -0.01068
-6.95287 -9.86333 -0.29068
-1.08287 -9.84333 0.59932
0.35713 -9.83333 -0.01068
-6.79287 -9.81333 -0.18068
-1.54287 -9.77333 0.74932
-2.93287 -9.77333 1.37932
-2.21287 -9.75333 0.99932
-1.90287 -9.75333 0.98932
-0.59287 -9.71333 0.40932
-7.28287 -9.70333 -5.88068
-2.16287 -9.67333 0.99932
-3.29287 -9.66333 1.15932
-1.52287 -9.65333 0.77932
-4.49287 -9.64333 0.84932
0.38713 -9.63333 0.04932
-2.37287 -9.62333 1.11932
-2.66287 -9.59333 1.29932
-4.29287 -9.57333 0.80932
-1.55287 -9.54333 0.83932
-6.90287 -9.50333 -0.24068
-1.45287 -9.49333 0.71932
-0.39287 -9.48333 0.43932
-3.66287 -9.47333 0.91932
-5.29287 -9.47333 0.39932
-3.26287 -9.45333 1.20932
0.53713 -9.42333 -0.04068
-2.71287 -9.39333 1.22932
-5.46287 -9.39333 0.33932
-6.27287 -9.37333 -0.04068
-2.51287 -9.37333 1.21932
-4.65287 -9.36333 0.53932
-1.21287 -9.33333 0.73932
-0.36287 -9.32333 0.22932
-3.82287 -9.29333 0.93932
-7.26287 -9.28333 -0.48068
-1.65287 -9.26333 0.87932
-0.41287 -9.24333 0.18932
-5.63287 -9.23333 0.07932
-4.28287 -9.21333 0.73932
-2.88287 -9.18333 1.19932
-4.91287 -9.18333 0.46932
-1.99287 -9.18333 1.09932
-4.70287 -9.18333 0.72932
-3.58287 -9.15333 1.07932
-2.94287 -9.14333 1.33932
-5.42287 -9.13333 0.32932
-6.62287 -9.11333 -0.37068
-7.43287 -9.11333 -6.10068
-1.27287 -9.08333 0.78932
-6.00287 -9.07333 -0.03068
-3.98287 -9.04333 0.76932
-2.80287 -9.02333 1.34932
-5.28287 -8.99333 0.32932
-7.09287 -8.96333 -0.45068
-2.19287 -8.91333 1.05932
-0.08287 -8.90333 0.27932
-4.74287 -8.88333 0.57932
-3.76287 -8.83333 0.96932
-7.24287 -8.82333 -0.46068
-3.37287 -8.82333 1.18932
-2.35287 -8.80333 1.26932
-7.37287 -8.78333 -6.11068
-6.15287 -8.77333 -0.18068
-6.29287 -8.75333 -0.21068
-2.59287 -8.74333 1.39932
-3.15287 -8.73333 1.18932
-0.24287 -8.71333 0.30932
-6.69287 -8.65333 -5.88068
-4.71287 -8.64333 0.64932
-7.24287 -8.63333 -0.65068
-5.88287 -8.62333 0.03932
-0.97287 -8.57333 0.66932
0.58713 -8.54333 -0.00068
-7.28287 -8.53333 -0.60068
-1.10287 -8.51333 0.77932
-7.37287 -8.51333 -0.51068
-4.25287 -8.50333 0.71932
-0.55287 -8.45333 0.49932
-5.88287 -8.45333 0.05932
-5.69287 -8.43333 0.11932
-1.67287 -8.37333 0.88932
-7.03287 -8.36333 -0.47068
-2.80287 -8.28333 1.29932
-5.33287 -8.28333 0.25932
-6.66287 -8.24333 -0.35068
-0.10287 -8.19333 0.35932
-3.37287 -8.19333 1.04932
-3.77287 -8.18333 0.83932
-5.86287 -8.18333 0.04932
0.11713 -8.17333 -0.00068
-4.77287 -8.08333 0.41932
-1.17287 -8.08333 0.75932
-0.92287 -8.05333 0.76932
-6.46287 -8.05333 -0.37068
-1.20287 -8.02333 0.80932
-2.43287 -7.99333 1.31932
-0.52287 -7.96333 0.54932
-2.34287 -7.95333 1.26932
-0.28287 -7.91333 0.44932
-6.75287 -7.89333 -0.42068
-1.77287 -7.89333 1.06932
-3.53287 -7.88333 0.87932
-3.82287 -7.88333 0.82932
-2.78287 -7.86333 1.30932
-3.31287 -7.84333 0.88932
0.52713 -7.84333 0.19932
-4.61287 -7.77333 0.28932
-0.67287 -7.77333 0.69932
-0.73287 -7.76333 0.63932
-3.05287 -7.76333 1.22932
-1.24287 -7.74333 0.86932
0.29713 -7.74333 0.32932
-4.30287 -7.72333 0.46932
-6.91287 -7.72333 -6.15068
-2.64287 -7.72333 1.23932
-2.02287 -7.69333 1.16932
-1.39287 -7.68333 0.97932
-5.71287 -7.66333 -0.05068
-5.44287 -7.64333 0.10932
-1.52287 -7.63333 1.06932
-5.27287 -7.60333 0.05932
-0.53287 -7.58333 0.54932
-3.14287 -7.57333 0.83932
-2.18287 -7.57333 1.26932
-6.81287 -7.55333 -0.49068
-3.64287 -7.50333 0.81932
-6.31287 -7.49333 -0.29068
-6.24287 -7.47333 -0.39068
-1.30287 -7.44333 0.97932
-4.26287 -7.43333 0.42932
-0.22287 -7.42333 0.42932
-7.07287 -7.37333 -6.24068
-3.31287 -7.32333 0.86932
-5.35287 -7.30333 -0.08068
-2.07287 -7.29333 1.36932
-4.66287 -7.26333 0.30932
-1.10287 -7.25333 0.90932
-6.31287 -7.23333 -0.32068
-3.80287 -7.22333 0.68932
-5.60287 -7.20333 0.07932
-6.46287 -7.16333 -0.50068
0.38713 -7.16333 0.29932
-3.01287 -7.10333 1.05932
-6.51287 -7.09333 -4.82068
-2.00287 -7.08333 1.26932
-4.44287 -7.07333 0.46932
-0.96287 -7.04333 0.90932
-5.66287 -7.03333 -0.20068
-0.07287 -7.01333 0.39932
-1.21287 -6.93333 0.92932
-4.27287 -6.93333 0.52932
-3.98287 -6.90333 0.60932
-3.04287 -6.88333 1.02932
-3.24287 -6.85333 0.93932
-2.30287 -6.84333 1.19932
-1.11287 -6.84333 0.95932
-6.66287 -6.80333 -0.61068
-5.59287 -6.80333 -0.09068
-1.80287 -6.79333 1.25932
-3.53287 -6.76333 0.83932
-1.93287 -6.75333 1.41932
-3.31287 -6.74333 0.89932
-4.94287 -6.71333 0.17932
-6.67287 -6.70333 -5.96068
0.32713 -6.66333 0.33932
-4.15287 -6.65333 0.50932
-5.91287 -6.64333 -0.15068
-0.90287 -6.56333 0.77932
-6.72287 -6.55333 -0.54068
-6.74287 -6.54333 -0.55068
-0.08287 -6.53333 0.51932
-5.91287 -6.51333 -0.30068
-1.21287 -6.47333 0.96932
-2.16287 -6.47333 1.35932
0.37713 -6.46333 0.41932
-6.26287 -6.45333 -0.43068
-5.23287 -6.43333 0.02932
-2.29287 -6.39333 1.09932
-3.24287 -6.36333 0.75932
-0.46287 -6.31333 0.78932
-6.46287 -6.28333 -5.86068
-3.27287 -6.27333 0.69932
-6.76287 -6.27333 -0.60068
-0.02287 -6.27333 0.59932
0.50713 -6.23333 0.45932
-6.31287 -6.21333 -0.44068
-6.05287 -6.19333 -0.29068
0.36713 -6.16333 0.35932
-1.30287 -6.16333 1.15932
-4.24287 -6.15333 0.26932
-5.42287 -6.14333 -0.19068
-0.08287 -6.11333 0.56932
-1.40287 -6.10333 1.20932
-0.90287 -6.09333 0.83932
-5.21287 -6.03333 -0.20068
-6.53287 -6.03333 -0.59068
-2.13287 -6.00333 1.14932
-2.18287 -5.99333 1.28932
-1.05287 -5.94333 0.96932
-6.19287 -5.91333 -0.59068
-1.55287 -5.89333 1.24932
-3.22287 -5.87333 0.66932
-2.23287 -5.87333 1.24932
-3.69287 -5.84333 0.64932
-2.36287 -5.79333 1.19932
-0.09287 -5.77333 0.62932
-2.02287 -5.76333 1.27932
-4.00287 -5.76333 0.53932
-3.21287 -5.74333 0.74932
-4.33287 -5.73333 0.24932
0.48713 -5.66333 0.49932
-6.39287 -5.62333 -0.48068
-0.90287 -5.61333 0.93932
-5.41287 -5.59333 -0.28068
-4.22287 -5.52333 0.34932
-0.19287 -5.50333 0.76932
-3.17287 -5.50333 0.78932
-0.45287 -5.48333 0.77932
-1.67287 -5.47333 1.33932
-6.49287 -5.46333 -0.81068
-6.20287 -5.43333 -6.45068
-1.32287 -5.41333 1.21932
-0.44287 -5.37333 0.76932
0.38713 -5.36333 0.51932
0.08713 -5.34333 0.75932
-2.34287 -5.32333 1.01932
-1.33287 -5.31333 1.22932
-4.66287 -5.31333 0.15932
-5.23287 -5.28333 -0.15068
-2.62287 -5.27333 0.96932
-4.33287 -5.24333 0.21932
-3.35287 -5.22333 0.67932
-6.49287 -5.22333 -0.50068
0.06713 -5.19333 0.60932
-1.84287 -5.15333 1.45932
-4.31287 -5.12333 0.16932
-2.34287 -5.11333 1.13932
-1.19287 -5.10333 1.20932
-3.59287 -5.08333 0.54932
-6.23287 -5.06333 -0.56068
-5.32287 -5.03333 -0.11068
-5.17287 -5.02333 -0.13068
-2.33287 -4.99333 1.02932
-5.45287 -4.98333 -0.23068
-0.04287 -4.95333 0.69932
-6.30287 -4.93333 -0.69068
-2.00287 -4.92333 1.29932
-2.68287 -4.91333 0.92932
-1.20287 -4.89333 1.22932
-3.43287 -4.89333 0.61932
-3.42287 -4.88333 0.59932
-4.55287 -4.88333 0.15932
-4.14287 -4.86333 0.41932
-2.79287 -4.84333 0.87932
-2.22287 -4.79333 0.97932
-4.48287 -4.75333 0.23932
-5.51287 -4.69333 -0.27068
-3.20287 -4.66333 0.54932
-5.61287 -4.66333 -0.28068
-4.56287 -4.66333 0.02932
0.12713 -4.64333 0.73932
-1.13287 -4.57333 1.16932
0.37713 -4.51333 0.56932
-5.87287 -4.49333 -5.96068
-0.85287 -4.48333 1.16932
-5.61287 -4.45333 -0.30068
-2.26287 -4.44333 0.90932
-0.33287 -4.44333 0.95932
-5.17287 -4.42333 -0.30068
-0.05287 -4.41333 0.81932
-0.45287 -4.37333 0.99932
-5.09287 -4.35333 -0.18068
-3.37287 -4.31333 0.42932
-1.27287 -4.22333 1.32932
0.03713 -4.20333 0.74932
-4.46287 -4.17333 -0.04068
-2.29287 -4.15333 1.07932
0.24713 -4.11333 0.74932
-5.58287 -4.09333 -3.95068
-5.61287 -4.09333 -0.33068
-5.57287 -4.04333 -0.48068
-0.91287 -4.03333 1.15932
0.49713 -4.00333 0.57932
-2.28287 -3.99333 0.91932
-3.12287 -3.97333 0.63932
-2.47287 -3.93333 1.00932
-3.22287 -3.88333 0.56932
-0.45287 -3.87333 1.05932
-4.59287 -3.86333 0.05932
-0.27287 -3.85333 1.02932
-1.97287 -3.81333 1.07932
-1.51287 -3.78333 1.10932
-3.28287 -3.76333 0.48932
-4.95287 -3.76333 -0.10068
0.26713 -3.72333 0.83932
-1.05287 -3.70333 1.41932
-2.52287 -3.68333 0.77932
-3.50287 -3.58333 0.31932
-1.27287 -3.58333 1.31932
-0.74287 -3.56333 1.29932
-3.13287 -3.55333 0.55932
-0.64287 -3.55333 1.20932
-5.67287 -3.54333 -6.56068
-4.28287 -3.54333 0.05932
-0.25287 -3.51333 0.96932
-1.99287 -3.51333 1.03932
-4.51287 -3.48333 -0.03068
-0.49287 -3.47333 1.16932
-1.46287 -3.41333 1.20932
-5.52287 -3.40333 -0.39068
-5.51287 -3.38333 -0.45068
-1.64287 -3.35333 1.13932
0.48713 -3.34333 0.73932
-5.26287 -3.31333 -0.35068
-2.98287 -3.31333 0.50932
-2.55287 -3.30333 0.74932
-0.65287 -3.28333 1.13932
-4.28287 -3.28333 0.00932
-5.62287 -3.21333 -6.48068
-3.64287 -3.19333 0.24932
-0.19287 -3.18333 1.01932
-1.67287 -3.17333 0.95932
-2.75287 -3.15333 0.78932
-2.71287 -3.14333 0.75932
-3.92287 -3.12333 0.20932
-4.74287 -3.08333 -0.19068
-2.66287 -3.05333 0.55932
-5.41287 -3.03333 -0.46068
-3.57287 -3.02333 0.34932
-0.40287 -2.96333 1.06932
-3.64287 -2.93333 0.15932
-3.65287 -2.93333 0.31932
-2.95287 -2.93333 0.64932
-4.88287 -2.92333 -0.21068
-3.80287 -2.91333 0.22932
-1.56287 -2.85333 1.01932
-5.04287 -2.85333 -0.28068
-4.62287 -2.82333 -0.26068
-5.42287 -2.75333 -0.42068
-2.64287 -2.72333 0.50932
-5.60287 -2.70333 -0.67068
-4.90287 -2.69333 -0.27068
-1.16287 -2.64333 1.24932
-1.71287 -2.64333 1.07932
-3.74287 -2.59333 0.10932
-0.17287 -2.59333 1.09932
-0.93287 -2.53333 1.38932
-4.82287 -2.45333 -0.40068
-1.05287 -2.42333 1.26932
0.45713 -2.42333 0.75932
-0.20287 -2.38333 1.18932
-1.26287 -2.28333 1.15932
-0.48287 -2.26333 1.24932
-0.63287 -2.25333 1.38932
-5.62287 -2.22333 -6.54068
-2.23287 -2.19333 0.68932
-2.06287 -2.19333 0.80932
-3.20287 -2.14333 0.43932
-3.24287 -2.09333 0.36932
-4.02287 -2.06333 0.00932
-1.56287 -2.03333 1.08932
0.11713 -2.02333 0.95932
-4.23287 -1.99333 -0.12068
-5.00287 -1.98333 -5.96068
-0.06287 -1.98333 1.18932
-4.07287 -1.98333 -0.01068
-3.05287 -1.96333 0.39932
-1.05287 -1.92333 1.06932
-3.43287 -1.92333 0.31932
-5.22287 -1.89333 -0.53068
-5.49287 -1.85333 -0.57068
-2.16287 -1.81333 0.71932
-0.93287 -1.81333 1.20932
-0.41287 -1.77333 1.26932
-2.72287 -1.76333 0.48932
0.03713 -1.76333 1.15932
0.46713 -1.74333 0.93932
-4.08287 -1.72333 -0.12068
-5.33287 -1.71333 -6.58068
-3.23287 -1.70333 0.20932
-1.59287 -1.69333 1.00932
-2.16287 -1.68333 0.72932
-1.40287 -1.65333 0.90932
-1.85287 -1.62333 0.90932
-4.32287 -1.59333 -0.21068
-0.91287 -1.57333 1.32932
-2.39287 -1.54333 0.53932
-1.40287 -1.53333 1.14932
-3.88287 -1.50333 -0.00068
-5.07287 -1.49333 -0.57068
-3.37287 -1.42333 0.12932
-2.85287 -1.42333 0.35932
-0.54287 -1.41333 1.30932
-2.01287 -1.35333 0.76932
0.46713 -1.34333 0.99932
-4.34287 -1.30333 -0.31068
-1.63287 -1.27333 0.73932
-1.08287 -1.27333 1.23932
-5.01287 -1.24333 -0.53068
-3.81287 -1.22333 -0.09068
-2.74287 -1.15333 0.35932
-3.65287 -1.14333 0.05932
-3.10287 -1.13333 0.29932
-4.47287 -1.11333 -0.31068
-4.77287 -1.03333 -0.48068
-4.50287 -1.02333 -0.31068
-3.84287 -1.01333 -0.15068
-4.81287 -0.99333 -3.67068
-3.90287 -0.92333 0.03932
-4.19287 -0.91333 -0.16068
-4.94287 -0.87333 -0.64068
0.05713 -0.84333 1.24932
0.28713 -0.79333 1.12932
-0.32287 -0.74333 1.31932
-2.02287 -0.74333 0.66932
-2.61287 -0.73333 0.45932
-1.31287 -0.64333 0.86932
-0.58287 -0.63333 1.26932
0.30713 -0.56333 1.10932
-2.31287 -0.54333 0.47932
-1.89287 -0.51333 0.77932
0.04713 -0.46333 1.27932
-3.30287 -0.44333 0.02932
-0.45287 -0.39333 1.27932
-1.59287 -0.39333 0.77932
-0.71287 -0.36333 1.20932
-4.29287 -0.34333 -0.39068
-1.55287 -0.28333 0.82932
-1.53287 -0.27333 0.87932
0.06713 -0.25333 1.17932
0.44713 -0.23333 1.15932
-4.77287 -0.20333 -4.12068
-4.91287 -0.18333 -0.55068
-2.63287 -0.17333 0.26932
-2.57287 -0.17333 0.33932
-0.95287 -0.14333 0.97932
-4.11287 -0.13333 -0.25068
-1.85287 -0.10333 0.65932
-4.93287 -0.07333 -0.56068
-3.73287 -0.06333 -0.15068
-0.40287 -0.06333 1.23932
-1.90287 -0.02333 0.48932
0.19713 0.02667 1.23932
-4.81287 0.04667 -0.68068
-3.58287 0.05667 -0.08068
-0.36287 0.05667 1.35932
-2.88287 0.08667 0.07932
-4.37287 0.08667 -0.35068
0.58713 0.10667 1.05932
-1.37287 0.13667 0.77932
-3.00287 0.15667 0.14932
-3.85287 0.20667 -0.34068
-3.05287 0.20667 0.16932
-0.58287 0.21667 0.97932
-2.45287 0.21667 0.30932
-0.84287 0.23667 1.00932
-4.58287 0.29667 -0.58068
0.20713 0.31667 1.25932
-2.32287 0.32667 0.35932
0.31713 0.32667 1.25932
-1.69287 0.34667 0.53932
-4.14287 0.41667 -0.34068
-1.91287 0.44667 0.60932
-0.37287 0.45667 1.30932
-2.35287 0.47667 0.50932
-2.78287 0.48667 0.01932
0.55713 0.52667 1.08932
-3.27287 0.52667 -0.04068
-3.89287 0.61667 -0.41068
-0.50287 0.61667 1.10932
-3.01287 0.67667 0.06932
-1.48287 0.71667 0.64932
-4.23287 0.71667 -0.46068
-1.98287 0.72667 0.58932
-2.48287 0.81667 0.26932
-4.56287 0.86667 -0.48068
0.07713 0.88667 1.30932
-4.10287 0.89667 -0.40068
-3.45287 0.91667 -0.21068
-1.01287 0.99667 0.77932
-0.81287 0.99667 1.02932
-4.46287 1.01667 -0.56068
0.55713 1.04667 1.24932
-2.11287 1.10667 0.37932
-2.88287 1.16667 0.06932
-3.50287 1.16667 -0.18068
-4.58287 1.19667 -6.58068
-3.20287 1.21667 -0.13068
-0.38287 1.25667 1.09932
-0.24287 1.27667 1.23932
-0.13287 1.29667 1.27932
-4.29287 1.32667 -0.60068
-0.81287 1.42667 0.95932
-0.01287 1.48667 1.14932
-1.38287 1.48667 0.62932
-2.83287 1.48667 0.11932
-0.38287 1.49667 1.08932
-3.82287 1.50667 4.90932
-0.97287 1.60667 0.68932
0.37713 1.67667 1.37932
-2.38287 1.71667 0.17932
-1.94287 1.72667 0.24932
-2.44287 1.74667 0.20932
-1.52287 1.75667 0.57932
-3.32287 1.82667 4.40932
-2.92287 1.84667 -0.16068
-0.32287 1.84667 0.91932
-0.58287 1.87667 0.96932
0.31713 1.92667 1.24932
-4.37287 1.93667 3.36932
-3.39287 1.94667 -0.29068
-1.26287 1.94667 0.69932
-1.41287 1.98667 0.37932
-2.64287 2.00667 0.16932
-0.67287 2.02667 0.80932
-4.19287 2.04667 2.65932
-0.43287 2.06667 0.94932
-1.56287 2.07667 0.41932
-2.53287 2.11667 -0.00068
-3.30287 2.11667 -0.24068
-3.95287 2.11667 -0.44068
-1.68287 2.12667 0.41932
-4.16287 2.16667 2.60932
-2.68287 2.22667 0.04932
-3.80287 2.26667 -0.37068
-2.50287 2.26667 0.03932
-0.71287 2.27667 0.93932
-4.20287 2.28667 2.87932
-1.53287 2.29667 0.39932
-0.58287 2.29667 0.98932
-3.13287 2.31667 4.59932
-0.37287 2.34667 1.01932
-1.23287 2.38667 0.63932
-3.88287 2.43667 -6.51068
-1.44287 2.45667 0.47932
-3.43287 2.45667 -0.31068
-3.86287 2.45667 5.08932
-3.63287 2.49667 4.62932
-3.31287 2.49667 -0.14068
-3.85287 2.50667 -6.19068
-2.59287 2.50667 0.00932
-4.08287 2.50667 4.95932
-2.53287 2.56667 0.03932
0.41713 2.60667 1.37932
-3.49287 2.61667 4.41932
-4.11287 2.63667 2.58932
-3.69287 2.73667 -0.52068
-2.88287 2.73667 -0.11068
-3.74287 2.74667 -6.58068
-3.83287 2.86667 -6.55068
-1.70287 2.88667 0.43932
-3.21287 3.01667 6.17932
-3.51287 3.02667 4.30932
-2.48287 3.04667 4.30932
0.22713 3.07667 1.00932
-3.64287 3.08667 4.98932
-0.25287 3.10667 0.83932
-0.75287 3.19667 0.59932
0.33713 3.22667 1.16932
-2.16287 3.28667 4.44932
-1.19287 3.28667 0.56932
-1.03287 3.29667 0.69932
-1.73287 3.31667 0.15932
0.04713 3.32667 1.04932
-1.24287 3.32667 0.39932
-1.66287 3.33667 0.32932
-2.71287 3.42667 -0.22068
-0.94287 3.42667 0.62932
-2.64287 3.45667 4.65932
0.36713 3.47667 1.05932
-2.56287 3.47667 4.17932
-0.80287 3.49667 0.64932
-3.78287 3.49667 -0.53068
-1.93287 3.52667 0.21932
-2.21287 3.54667 0.07932
-3.22287 3.54667 3.65932
-3.72287 3.54667 5.38932
0.40713 3.54667 1.08932
-3.84287 3.55667 5.55932
-0.02287 3.55667 1.01932
-0.72287 3.61667 0.49932
-2.92287 3.63667 -0.23068
-0.20287 3.64667 0.84932
-0.54287 3.73667 0.69932
-3.34287 3.73667 -0.39068
-1.83287 3.74667 0.10932
-1.95287 3.74667 0.15932
-1.30287 3.75667 0.46932
-3.22287 3.77667 -0.40068
-3.21287 3.79667 3.78932
-3.06287 3.81667 4.21932
-2.14287 3.82667 0.09932
-2.38287 3.86667 -0.06068
-0.09287 3.87667 0.91932
-2.02287 3.87667 3.86932
-1.41287 3.89667 4.12932
-1.45287 3.90667 4.02932
-3.64287 3.92667 6.72932
-1.50287 3.93667 0.26932
-3.10287 4.00667 -0.32068
-1.33287 4.06667 3.90932
-1.18287 4.09667 0.40932
-2.47287 4.13667 -0.23068
-3.69287 4.16667 -6.53068
-3.19287 4.20667 3.93932
-3.58287 4.25667 5.86932
-2.09287 4.29667 -0.00068
-1.67287 4.29667 0.08932
-3.38287 4.31667 -0.50068
-2.27287 4.31667 -0.12068
-1.49287 4.31667 0.26932
-2.36287 4.38667 3.79932
-3.24287 4.43667 3.94932
0.26713 4.46667 1.03932
-0.47287 4.49667 0.73932
-3.32287 4.52667 -0.49068
0.20713 4.58667 0.88932
-3.00287 4.66667 4.83932
-0.15287 4.74667 0.71932
0.36713 4.74667 0.96932
-2.44287 4.76667 4.16932
-2.59287 4.78667 -0.28068
-0.60287 4.84667 0.48932
-1.14287 4.86667 0.36932
-1.86287 4.86667 4.17932
-1.90287 4.87667 4.14932
-2.38287 4.88667 5.04932
-0.04287 4.89667 0.76932
-1.60287 4.94667 0.13932
-3.41287 4.98667 4.87932
-2.10287 4.99667 -0.21068
-0.43287 5.12667 0.47932
-1.04287 5.12667 0.31932
-2.06287 5.12667 3.86932
-0.07287 5.14667 0.77932
-0.36287 5.18667 0.67932
-2.73287 5.18667 4.97932
-2.73287 5.20667 4.85932
-1.54287 5.25667 0.03932
-2.53287 5.26667 -0.35068
-2.14287 5.28667 -0.10068
-1.44287 5.29667 0.17932
-1.95287 5.32667 0.01932
0.60713 5.32667 1.11932
-2.02287 5.34667 -0.05068
-3.12287 5.36667 3.44932
-2.61287 5.39667 -0.57068
-1.21287 5.40667 0.27932
-2.51287 5.41667 -0.39068
-0.91287 5.43667 0.41932
-0.20287 5.46667 0.70932
-2.57287 5.49667 3.47932
-0.23287 5.54667 0.62932
-3.04287 5.57667 -0.55068
-0.29287 5.64667 0.61932
-2.36287 5.66667 -0.28068
-3.04287 5.73667 -0.56068
-2.88287 5.80667 3.04932
-1.24287 5.83667 0.18932
-0.27287 5.86667 0.58932
-2.17287 6.02667 -0.15068
-3.13287 6.05667 5.37932
-1.35287 6.08667 0.09932
-3.02287 6.13667 3.46932
0.07713 6.16667 0.63932
-2.95287 6.20667 -0.56068
-0.91287 6.26667 0.19932
-2.07287 6.27667 4.13932
-2.59287 6.28667 3.02932
-2.61287 6.28667 -0.33068
-2.59287 6.31667 4.15932
-2.98287 6.31667 5.45932
-2.45287 6.31667 -0.47068
-2.40287 6.32667 -0.26068
0.15713 6.33667 0.75932
-1.88287 6.37667 -0.38068
-1.36287 6.39667 0.10932
-0.34287 6.43667 0.36932
-2.90287 6.46667 -0.58068
-0.68287 6.47667 0.43932
-0.65287 6.49667 0.36932
-0.10287 6.51667 0.43932
-1.32287 6.55667 -0.07068
-1.22287 6.62667 0.09932
-2.31287 6.66667 -0.45068
-2.29287 6.73667 -0.43068
-0.47287 6.79667 0.26932
0.17713 6.81667 0.67932
-2.54287 6.91667 -6.18068
-1.55287 6.93667 -0.26068
0.28713 7.03667 0.61932
-0.80287 7.04667 0.29932
-2.66287 7.05667 -0.64068
-2.30287 7.14667 -6.43068
-1.81287 7.27667 -0.26068
-0.85287 7.28667 0.14932
-0.29287 7.33667 0.41932
-1.81287 7.33667 -0.21068
-1.08287 7.45667 0.04932
-0.23287 7.47667 0.30932
-1.15287 7.47667 0.07932
-1.98287 7.54667 -0.36068
0.37713 7.58667 0.64932
0.23713 7.58667 0.55932
-1.17287 7.66667 -0.03068
-0.61287 7.68667 0.19932
-1.60287 7.78667 -0.22068
-0.85287 7.81667 0.07932
0.53713 7.81667 0.68932
-2.12287 7.85667 -0.43068
0.16713 7.95667 0.44932
-0.23287 7.96667 0.32932
-1.93287 8.03667 -0.42068
-0.81287 8.07667 -0.03068
-1.32287 8.07667 -0.15068
-1.79287 8.18667 -0.44068
-2.41287 8.18667 -0.61068
-2.25287 8.27667 -0.49068
-0.75287 8.34667 0.17932
-0.18287 8.36667 0.22932
-1.52287 8.41667 -0.27068
-1.63287 8.47667 -0.32068
-1.29287 8.50667 -0.26068
-2.06287 8.56667 -4.89068
-0.35287 8.76667 0.17932
0.08713 8.77667 0.37932
0.02713 8.93667 0.32932
-0.35287 8.99667 0.24932
-1.36287 8.99667 -0.30068
-1.34287 9.01667 -6.62068
-1.33287 9.09667 -0.23068
-1.10287 9.18667 -0.15068
-1.43287 9.27667 -6.34068
-0.15287 9.28667 0.17932
-0.15287 9.32667 0.26932
-1.94287 9.36667 -0.48068
-1.21287 9.36667 -0.16068
-1.24287 9.39667 -0.28068
-2.10287 9.47667 -0.53068
-1.11287 9.51667 -0.19068
-1.72287 9.55667 -4.68068
-0.60287 9.60667 -0.15068
-0.81287 9.67667 -0.04068
-1.59287 9.72667 -0.55068
-0.36287 9.72667 0.08932
0.26713 9.88667 0.09932
-1.88287 9.89667 -0.46068
-0.83287 10.01667 -0.37068
-1.59287 10.20667 -6.58068
0.09713 10.30667 0.21932
-1.43287 10.33667 -3.62068
-1.66287 10.36667 -0.49068
-0.17287 10.38667 0.09932
-0.87287 10.40667 -0.25068
0.35713 10.54667 0.32932
-0.32287 10.62667 -0.09068
0.40713 10.66667 0.24932
-0.81287 10.68667 -0.17068
-0.67287 10.77667 -0.25068
-0.15287 10.80667 0.13932
-1.31287 10.84667 -0.50068
-0.30287 10.85667 -0.05068
-1.45287 11.11667 -0.61068
-0.08287 11.18667 -0.16068
-0.19287 11.20667 0.00932
0.54713 11.27667 0.29932
-1.07287 11.29667 -0.53068
-0.60287 11.34667 -0.20068
-1.13287 11.39667 -0.41068
-0.52287 11.49667 -0.19068
-0.10287 11.56667 -0.03068
-1.26287 11.63667 -0.52068
0.61713 11.69667 -3.24068
-1.06287 11.77667 -6.53068
-0.59287 11.78667 -3.13068
-0.62287 11.80667 -0.24068
-0.66287 11.85667 -0.34068
-1.09287 11.99667 -4.37068
-1.14287 12.11667 -6.70068
0.63713 -10.59333 -0.25068
0.68713 -12.16333 -0.44068
0.77713 -10.95333 -0.35068
0.77713 -11.04333 -5.99068
0.78713 -11.30333 -0.34068
0.78713 -12.04333 -0.45068
0.79713 -10.77333 -0.30068
0.89713 -11.50333 -6.07068
0.92713 -11.50333 -6.08068
0.92713 -11.40333 -0.39068
0.98713 -10.22333 -0.31068
1.02713 -11.84333 -0.56068
1.07713 -11.54333 -0.55068
1.12713 -11.10333 -6.29068
1.20713 -10.01333 -0.46068
1.22713 -11.70333 -0.51068
1.28713 -11.52333 -0.66068
1.30713 -11.18333 -0.49068
1.34713 -10.05333 -0.44068
1.40713 -10.17333 -2.63068
1.42713 -9.81333 -4.97068
1.51713 -9.98333 -6.37068
1.64713 -9.86333 -0.50068
0.65713 -2.74333 0.72932
0.66713 -8.07333 -0.09068
0.67713 -5.04333 0.55932
0.68713 -3.96333 0.56932
0.70713 -5.92333 0.29932
0.72713 -2.13333 0.83932
0.73713 -1.82333 0.71932
0.73713 -1.48333 0.76932
0.73713 -8.34333 -0.00068
0.75713 -7.61333 0.37932
0.77713 -9.78333 -0.15068
0.80713 -8.05333 -0.02068
0.82713 -6.30333 0.25932
0.86713 -3.03333 0.55932
0.87713 -2.62333 0.64932
0.88713 -6.28333 0.15932
0.88713 -2.24333 0.73932
0.89713 -9.40333 -0.22068
0.91713 -1.92333 0.68932
0.92713 -7.13333 0.19932
0.95713 -5.59333 0.21932
0.95713 -2.46333 0.52932
0.99713 -3.61333 0.43932
1.01713 -4.38333 0.37932
1.03713 -9.68333 -0.30068
1.06713 -6.59333 0.02932
1.06713 -7.10333 -0.07068
1.07713 -7.89333 -0.03068
1.07713 -1.55333 0.66932
1.08713 -8.14333 -0.22068
1.09713 -5.02333 0.23932
1.11713 -0.94333 0.73932
1.11713 -5.98333 0.23932
1.15713 -3.89333 0.42932
1.18713 -9.78333 -0.33068
1.19713 -1.53333 0.66932
1.21713 -6.60333 0.02932
1.22713 -4.67333 0.24932
1.22713 -8.95333 -0.22068
1.25713 -7.23333 -0.05068
1.28713 -3.50333 0.35932
1.29713 -4.15333 0.26932
1.30713 -5.29333 0.08932
1.30713 -3.14333 0.46932
1.32713 -8.27333 -0.27068
1.33713 -2.12333 0.55932
1.33713 -8.00333 -0.16068
1.37713 -5.82333 0.06932
1.42713 -4.71333 0.10932
1.43713 -2.59333 0.39932
1.45713 -9.79333 -2.94068
1.45713 -9.60333 -0.38068
1.49713 -2.89333 0.37932
1.50713 -6.07333 -0.02068
1.51713 -9.54333 -4.47068
1.51713 -2.28333 0.47932
1.51713 -2.49333 0.38932
1.55713 -9.75333 -6.39068
1.55713 -6.90333 -0.10068
1.58713 -8.50333 -0.33068
1.59713 -6.75333 -0.25068
1.62713 -6.23333 -0.10068
1.62713 -7.77333 -0.20068
1.63713 -3.40333 0.18932
1.63713 -2.47333 0.35932
1.65713 -8.25333 -0.35068
1.69713 -8.18333 -0.33068
1.70713 -4.40333 0.06932
1.71713 -8.62333 -0.47068
1.71713 -4.02333 0.15932
1.75713 -8.91333 -0.34068
1.81713 -7.91333 -0.38068
1.81713 -4.04333 0.08932
1.83713 -6.45333 -0.28068
1.83713 -2.09333 0.35932
1.84713 -8.64333 -5.97068
1.86713 -1.89333 0.30932
1.87713 -8.04333 -0.35068
1.92713 -0.92333 0.56932
1.93713 -8.41333 -2.99068
1.94713 -1.09333 0.38932
1.94713 -3.42333 0.10932
1.96713 -4.54333 -0.08068
1.98713 -7.82333 -0.41068
1.99713 -1.56333 0.28932
1.99713 -8.01333 -3.67068
2.01713 -8.14333 -3.55068
2.02713 -7.80333 -2.79068
2.06713 -4.82333 -0.11068
2.06713 -4.06333 0.05932
2.07713 -6.76333 -0.26068
2.07713 -3.41333 0.06932
2.07713 -0.96333 0.40932
2.08713 -5.67333 -0.29068
2.09713 -2.55333 0.05932
2.09713 -4.30333 -0.03068
2.11713 -5.29333 -0.11068
2.13713 -3.10333 0.00932
2.13713 -4.91333 -0.16068
2.17713 -7.18333 -0.48068
2.17713 -8.28333 -6.18068
2.18713 -6.66333 -0.38068
2.20713 -8.21333 -0.55068
2.21713 -0.90333 0.27932
2.24713 -3.70333 -0.05068
2.25713 -5.07333 -0.31068
2.27713 -7.80333 -6.11068
2.27713 -5.99333 -0.37068
2.27713 -2.42333 0.00932
2.29713 -6.22333 -0.38068
2.30713 -8.03333 -6.20068
2.33713 -3.03333 -0.02068
2.38713 -6.66333 -3.09068
2.38713 -4.35333 -0.22068
2.39713 -2.77333 -0.01068
2.42713 -6.45333 -2.41068
2.48713 -1.84333 0.07932
2.50713 -6.21333 -3.34068
2.51713 -4.34333 -0.22068
2.52713 -6.17333 -0.47068
2.54713 -5.99333 -3.59068
2.55713 -5.39333 -0.37068
2.55713 -5.81333 -0.41068
2.59713 -2.22333 -0.06068
2.69713 -4.78333 -0.38068
2.73713 -2.26333 -0.02068
2.73713 -0.87333 0.14932
2.76713 -3.46333 -0.20068
2.78713 -1.24333 0.02932
2.81713 -5.29333 -0.50068
2.85713 -4.67333 -6.25068
2.89713 -4.45333 -0.39068
2.89713 -2.72333 -0.24068
2.90713 -4.97333 -0.42068
2.92713 -1.22333 -0.05068
2.93713 -4.71333 -0.47068
2.95713 -4.22333 -0.38068
2.95713 -5.29333 -0.46068
2.95713 -5.71333 -6.26068
2.96713 -4.13333 -0.45068
2.97713 -4.76333 -4.38068
3.00713 -1.95333 -0.16068
3.05713 -4.43333 -3.58068
3.09713 -2.58333 -0.27068
3.11713 -1.00333 -0.20068
3.12713 -4.20333 -4.05068
3.15713 -1.77333 -0.16068
3.16713 -4.54333 -4.33068
3.16713 -3.18333 -0.40068
3.17713 -1.07333 -0.13068
3.22713 -2.64333 -0.40068
3.30713 -1.62333 -0.39068
3.31713 -3.62333 -0.46068
3.36713 -2.94333 -0.39068
3.36713 -2.16333 -0.38068
3.42713 -3.16333 -0.61068
3.46713 -3.08333 -3.33068
3.49713 -3.80333 -0.57068
3.57713 -2.66333 -0.49068
3.61713 -1.39333 -0.32068
3.63713 -2.43333 -0.50068
3.64713 -2.82333 -3.45068
3.70713 -1.28333 -0.35068
3.73713 -2.83333 -3.62068
3.82713 -2.31333 -0.50068
3.89713 -2.73333 -0.63068
3.93713 -2.44333 -3.53068
4.02713 -1.34333 -2.70068
4.09713 -1.92333 -3.45068
4.12713 -1.23333 -0.63068
4.13713 -0.96333 -5.50068
4.14713 -2.01333 -0.61068
4.18713 -1.16333 -6.21068
4.23713 -1.09333 -0.59068
4.37713 -0.97333 -0.72068
0.62713 6.31667 0.81932
0.62713 6.66667 0.71932
0.62713 1.85667 1.22932
0.63713 3.62667 1.21932
0.63713 -0.61333 0.94932
0.65713 5.44667 0.99932
0.67713 4.99667 0.91932
0.67713 1.27667 1.19932
0.73713 5.07667 1.14932
0.73713 2.87667 1.27932
0.73713 3.47667 1.38932
0.75713 -0.60333 0.95932
0.76713 2.23667 1.21932
0.76713 7.26667 0.87932
0.77713 -0.49333 0.87932
0.80713 1.72667 1.20932
0.81713 4.63667 1.13932
0.82713 -0.83333 0.81932
0.82713 5.64667 1.08932
0.83713 1.70667 1.20932
0.88713 3.53667 1.32932
0.97713 6.40667 0.93932
0.97713 4.65667 1.30932
0.98713 6.86667 1.01932
1.00713 3.64667 1.40932
1.05713 1.40667 1.05932
1.05713 6.06667 1.10932
1.05713 2.69667 1.30932
1.06713 4.88667 1.24932
1.06713 4.31667 1.40932
1.07713 3.23667 1.17932
1.09713 -0.14333 0.84932
1.11713 7.51667 0.95932
1.16713 1.53667 1.03932
1.17713 2.52667 1.09932
1.18713 6.58667 1.12932
1.19713 -0.31333 0.70932
1.22713 -0.37333 0.77932
1.23713 2.97667 1.20932
1.24713 0.82667 0.82932
1.26713 -0.73333 0.67932
1.30713 3.36667 1.22932
1.31713 0.78667 0.79932
1.34713 7.36667 1.04932
1.37713 4.65667 1.22932
1.37713 7.48667 1.00932
1.37713 3.01667 1.12932
1.40713 0.89667 0.90932
1.43713 5.90667 1.30932
1.44713 1.83667 0.89932
1.44713 6.76667 1.21932
1.47713 1.79667 1.00932
1.50713 3.38667 1.10932
1.52713 1.68667 0.88932
1.55713 6.55667 1.27932
1.56713 3.38667 1.00932
1.59713 2.71667 0.98932
1.59713 5.25667 1.34932
1.60713 6.19667 1.24932
1.61713 1.58667 0.78932
1.64713 1.09667 0.79932
1.66713 -0.06333 0.66932
1.69713 0.43667 0.58932
1.69713 7.07667 1.14932
1.72713 6.53667 1.20932
1.72713 7.51667 1.29932
1.74713 6.77667 1.34932
1.80713 4.87667 1.19932
1.82713 5.44667 1.22932
1.83713 4.49667 1.06932
1.86713 4.99667 1.16932
1.87713 0.03667 0.54932
1.88713 4.96667 1.25932
1.88713 3.48667 0.98932
1.89713 0.89667 0.72932
1.91713 4.55667 0.93932
1.93713 2.45667 0.81932
1.95713 1.38667 0.68932
1.96713 7.73667 1.27932
1.97713 5.64667 1.25932
1.99713 -0.59333 0.53932
2.00713 2.13667 0.71932
2.04713 -0.53333 0.56932
2.04713 -0.32333 0.68932
2.05713 0.65667 0.52932
2.07713 4.69667 1.01932
2.08713 3.21667 0.86932
2.10713 1.65667 0.62932
2.10713 5.96667 1.14932
2.10713 6.29667 1.10932
2.11713 3.43667 0.90932
2.11713 6.39667 1.24932
2.12713 7.71667 1.25932
2.16713 6.55667 1.24932
2.18713 1.34667 0.49932
2.19713 5.83667 1.09932
2.20713 3.14667 0.76932
2.20713 0.75667 0.45932
2.27713 4.10667 0.90932
2.31713 0.01667 0.41932
2.32713 -0.37333 0.23932
2.33713 2.85667 0.71932
2.34713 7.16667 1.18932
2.36713 5.10667 0.94932
2.38713 1.51667 0.51932
2.39713 2.91667 0.68932
2.39713 4.74667 0.92932
2.40713 7.38667 1.15932
2.41713 1.52667 0.46932
2.42713 2.56667 0.67932
2.46713 6.56667 1.07932
2.48713 -0.28333 0.18932
2.51713 4.56667 0.72932
2.56713 0.68667 0.26932
2.57713 6.90667 1.18932
2.58713 1.74667 0.41932
2.58713 0.93667 0.30932
2.60713 5.61667 0.93932
2.63713 4.88667 0.85932
2.66713 4.34667 0.70932
2.69713 3.20667 0.58932
2.71713 6.12667 0.92932
2.72713 5.27667 0.83932
2.74713 1.22667 0.39932
2.77713 3.31667 0.56932
2.80713 -0.67333 0.07932
2.81713 3.85667 0.70932
2.82713 0.35667 0.06932
2.82713 0.57667 0.22932
2.83713 3.31667 0.49932
2.84713 3.07667 0.42932
2.88713 7.13667 0.99932
2.91713 -0.48333 0.15932
2.93713 6.24667 0.86932
2.96713 6.45667 0.86932
3.01713 4.52667 0.55932
3.03713 0.61667 0.07932
3.04713 4.49667 0.50932
3.04713 4.68667 0.59932
3.06713 3.95667 0.53932
3.09713 4.81667 0.55932
3.11713 2.30667 0.33932
3.14713 4.86667 0.62932
3.14713 4.96667 0.62932
3.16713 -0.03333 -0.00068
3.19713 7.63667 0.82932
3.21713 5.87667 0.72932
3.22713 2.97667 0.34932
3.23713 2.42667 0.24932
3.25713 -0.34333 -0.06068
3.26713 2.04667 0.08932
3.26713 6.99667 0.90932
3.27713 7.66667 0.79932
3.27713 -0.68333 -0.20068
3.27713 7.49667 0.75932
3.29713 2.67667 0.30932
3.30713 6.23667 0.69932
3.31713 1.28667 0.06932
3.32713 1.34667 0.13932
3.33713 6.76667 0.71932
3.34713 3.05667 0.19932
3.34713 6.19667 0.64932
3.38713 3.33667 0.28932
3.40713 1.59667 0.00932
3.42713 6.39667 0.69932
3.46713 -0.43333 -0.24068
3.49713 4.19667 0.35932
3.49713 3.74667 0.30932
3.51713 1.08667 -0.02068
3.51713 3.00667 0.25932
3.52713 1.41667 -0.01068
3.53713 2.86667 0.12932
3.54713 7.29667 0.69932
3.54713 0.76667 -0.10068
3.59713 -0.82333 -0.32068
3.61713 5.10667 0.42932
3.63713 7.12667 0.70932
3.65713 4.47667 0.18932
3.65713 2.91667 0.17932
3.65713 2.05667 0.18932
3.66713 3.15667 0.13932
3.71713 5.34667 0.39932
3.72713 6.53667 0.52932
3.73713 1.65667 -0.07068
3.75713 6.10667 0.47932
3.81713 0.58667 -0.22068
3.81713 -0.65333 -0.32068
3.85713 6.07667 0.43932
3.87713 0.46667 -0.25068
3.92713 2.81667 0.02932
3.93713 4.81667 0.25932
3.94713 0.51667 -0.24068
3.94713 2.06667 -0.08068
3.96713 0.26667 -0.46068
3.97713 4.35667 0.16932
4.05713 6.22667 0.45932
4.06713 2.27667 -0.12068
4.06713 1.17667 -0.23068
4.12713 3.24667 -0.04068
4.12713 4.45667 0.10932
4.13713 -0.66333 -3.26068
4.13713 6.60667 0.42932
4.15713 6.82667 0.49932
4.16713 5.58667 0.23932
4.18713 4.43667 0.05932
4.19713 -0.86333 -5.37068
4.21713 1.18667 -0.37068
4.24713 2.51667 -0.17068
4.25713 6.39667 0.26932
4.31713 0.93667 -0.36068
4.33713 4.04667 0.02932
4.33713 7.33667 0.42932
4.35713 5.79667 0.21932
4.35713 -0.38333 -0.56068
4.36713 6.22667 0.24932
4.37713 1.86667 -0.21068
4.37713 1.14667 -0.45068
4.38713 4.74667 0.04932
4.40713 4.76667 0.05932
4.43713 7.53667 0.43932
4.44713 -0.10333 -0.53068
4.45713 2.76667 -0.19068
4.46713 1.23667 -0.49068
4.47713 5.33667 0.14932
4.48713 2.96667 -0.26068
4.48713 0.28667 -0.49068
4.50713 0.59667 -0.52068
4.50713 -0.80333 -5.87068
4.51713 1.93667 -0.36068
4.51713 0.72667 -6.34068
4.53713 0.86667 -5.31068
4.54713 -0.70333 -5.83068
4.54713 4.93667 0.09932
4.55713 0.63667 -5.64068
4.55713 3.55667 -0.11068
4.57713 -0.49333 -0.64068
4.57713 2.97667 -0.23068
4.58713 6.09667 0.11932
4.59713 5.95667 0.11932
4.59713 4.65667 -0.11068
4.65713 0.90667 -2.69068
4.66713 3.23667 -0.37068
4.68713 2.80667 -0.31068
4.68713 7.20667 0.13932
4.69713 1.52667 -0.57068
4.69713 0.95667 -6.31068
4.70713 0.31667 -0.69068
4.70713 1.12667 -2.54068
4.71713 1.54667 -6.20068
4.73713 4.65667 -0.04068
4.76713 4.38667 -0.23068
4.77713 6.39667 0.11932
4.81713 0.92667 -0.49068
4.82713 1.16667 -6.39068
4.86713 1.56667 -0.51068
4.89713 4.44667 -0.11068
4.90713 2.12667 -0.52068
4.93713 6.45667 0.07932
4.94713 4.18667 -0.25068
4.96713 2.65667 -0.41068
5.00713 6.01667 -0.10068
5.03713 6.66667 -0.01068
5.04713 3.70667 -0.40068
5.05713 7.66667 0.13932
5.07713 2.28667 -3.94068
5.08713 2.27667 -5.95068
5.12713 2.67667 -5.96068
5.15713 2.70667 -4.74068
5.16713 3.89667 -0.40068
5.16713 7.18667 -0.00068
5.17713 3.29667 -6.24068
5.21713 2.34667 -0.61068
5.22713 5.45667 -0.17068
5.24713 2.61667 -0.53068
5.25713 2.94667 -5.96068
5.30713 3.56667 -0.42068
5.32713 4.37667 -0.43068
5.32713 6.05667 -0.16068
5.41713 3.17667 -0.62068
5.43713 5.80667 -0.25068
5.43713 4.76667 -0.31068
5.46713 2.81667 -0.70068
5.50713 5.70667 -0.39068
5.52713 6.32667 -0.20068
5.53713 4.50667 -0.39068
5.55713 7.54667 -0.16068
5.55713 3.96667 -2.86068
5.58713 6.28667 -0.21068
5.61713 3.28667 -6.40068
5.65713 4.66667 -0.42068
5.66713 4.51667 -0.49068
5.68713 4.67667 -0.57068
5.69713 4.52667 -3.44068
5.71713 7.43667 -0.22068
5.71713 6.31667 -0.34068
5.73713 4.12667 -6.28068
5.74713 4.37667 -6.33068
5.79713 4.74667 -3.11068
5.80713 7.11667 -0.23068
5.81713 7.66667 -0.14068
5.83713 5.99667 -0.41068
5.83713 7.32667 -0.29068
5.84713 4.04667 -0.94068
5.88713 4.29667 -0.67068
5.88713 7.52667 -0.28068
5.89713 4.53667 -6.38068
5.94713 6.48667 -0.38068
5.99713 4.19667 -6.35068
6.00713 5.39667 -0.49068
6.01713 4.75667 -6.52068
6.08713 5.98667 -5.71068
6.09713 5.04667 -6.47068
6.13713 5.95667 -0.57068
6.21713 6.20667 -5.80068
6.23713 6.76667 -0.40068
6.24713 6.29667 -5.71068
6.26713 5.65667 -0.61068
6.27713 5.89667 -0.65068
6.27713 6.47667 -3.25068
6.28713 6.36667 -0.48068
6.44713 5.92667 -5.82068
6.47713 6.16667 -0.85068
6.55713 6.42667 -5.76068
6.57713 7.29667 -0.52068
6.61713 7.66667 -5.34068
6.70713 7.48667 -0.64068
6.71713 7.37667 -0.63068
6.94713 7.63667 -0.64068
0.62713 8.54667 0.59932
0.66713 10.39667 0.33932
0.68713 8.47667 0.71932
0.74713 11.01667 0.35932
0.80713 9.12667 0.65932
0.80713 8.77667 0.76932
0.83713 10.59667 0.41932
0.86713 11.05667 0.43932
0.87713 7.85667 0.71932
0.91713 8.23667 0.68932
1.09713 10.20667 0.60932
1.14713 10.85667 0.60932
1.15713 7.83667 0.85932
1.17713 8.66667 0.86932
1.26713 8.52667 0.95932
1.27713 7.77667 1.10932
1.34713 9.75667 0.65932
1.43713 11.40667 0.70932
1.51713 10.55667 0.68932
1.53713 11.30667 -3.28068
1.59713 9.90667 0.84932
1.61713 11.05667 0.68932
1.62713 8.31667 1.02932
1.67713 8.79667 0.88932
1.68713 10.15667 0.86932
1.69713 10.81667 0.74932
1.78713 8.92667 1.11932
1.91713 10.38667 1.02932
1.94713 10.77667 0.91932
1.99713 10.32667 0.95932
2.01713 9.05667 1.16932
2.02713 8.10667 1.12932
2.04713 8.93667 1.22932
2.09713 10.09667 0.97932
2.32713 9.26667 1.11932
2.32713 8.41667 1.31932
2.37713 9.82667 1.21932
2.40713 9.36667 1.41932
2.43713 9.01667 1.32932
2.44713 9.62667 1.11932
2.47713 8.01667 1.29932
2.57713 8.10667 1.23932
2.60713 10.43667 1.17932
2.66713 10.61667 1.23932
2.67713 8.69667 1.17932
2.68713 9.92667 1.28932
2.68713 8.74667 1.27932
2.69713 10.83667 1.16932
2.80713 8.88667 1.30932
2.84713 8.42667 1.13932
3.00713 10.16667 1.32932
3.08713 10.09667 1.20932
3.12713 10.00667 1.15932
3.19713 8.95667 1.07932
3.22713 8.00667 1.01932
3.24713 8.01667 0.93932
3.29713 8.23667 1.00932
3.35713 8.84667 1.09932
3.39713 7.96667 0.84932
3.40713 9.18667 0.97932
3.44713 9.23667 0.93932
3.47713 8.59667 0.93932
3.49713 10.45667 1.13932
3.51713 9.77667 0.93932
3.51713 10.75667 1.21932
3.64713 10.65667 1.11932
3.66713 9.53667 0.92932
3.79713 10.33667 0.97932
3.92713 9.86667 0.88932
4.04713 9.92667 0.81932
4.21713 7.81667 0.45932
4.25713 9.91667 0.67932
4.25713 8.05667 0.67932
4.26713 10.31667 0.74932
4.35713 9.62667 0.66932
4.52713 10.15667 0.68932
4.53713 10.48667 0.69932
4.54713 9.11667 0.55932
4.55713 10.35667 0.74932
4.93713 9.46667 0.39932
4.95713 9.21667 0.32932
4.97713 9.45667 0.44932
5.00713 9.74667 0.41932
5.04713 8.29667 0.18932
5.05713 10.15667 0.41932
5.11713 8.51667 0.17932
5.18713 7.90667 0.09932
5.19713 9.47667 0.32932
5.25713 10.11667 0.44932
5.35713 9.81667 0.36932
5.39713 8.54667 0.20932
5.39713 8.27667 0.02932
5.49713 10.26667 -2.33068
5.65713 9.05667 0.19932
5.69713 8.74667 0.06932
5.69713 9.16667 0.11932
5.80713 10.13667 2.04932
5.82713 7.89667 -0.21068
5.85713 8.14667 -0.12068
5.90713 9.28667 1.60932
5.99713 10.10667 1.85932
5.99713 9.56667 0.14932
6.01713 8.34667 -0.25068
6.02713 9.32667 -0.03068
6.07713 8.42667 -0.22068
6.11713 9.41667 -0.05068
6.14713 7.73667 -0.33068
6.14713 8.22667 -0.23068
6.19713 9.91667 1.59932
6.21713 9.70667 1.62932
6.52713 8.53667 -0.35068
6.57713 9.72667 -0.28068
6.61713 9.86667 -0.35068
6.62713 7.99667 -0.55068
6.64713 8.15667 -5.97068
6.65713 7.77667 -2.83068
6.68713 8.04667 -4.12068
6.82713 9.00667 -0.44068
6.83713 8.26667 -5.37068
6.85713 9.17667 -0.46068
6.92713 9.41667 -0.47068
6.93713 8.16667 -0.56068
6.95713 8.64667 -0.57068
6.95713 7.91667 -6.33068
6.99713 9.65667 -5.00068
7.01713 8.78667 -0.55068
7.03713 8.01667 -6.47068
7.07713 9.31667 -3.66068
7.09713 7.81667 -0.62068
7.14713 9.36667 -0.46068
7.21713 8.25667 -5.12068
7.51713 9.35667 -5.87068
