-6.00906 -7.72527 -1.29696
-6.10906 -7.69527 -4.49696
-5.62906 -7.52527 -1.05696
-4.89906 -7.37527 -1.24696
-6.38906 -7.25527 -0.96696
-5.51906 -7.07527 -0.66696
-6.03906 -7.01527 -0.67696
-4.72906 -7.01527 -1.22696
-6.65906 -6.75527 -1.22696
-5.86906 -6.60527 -0.38696
-4.81906 -6.46527 -0.64696
-6.60906 -6.32527 -0.18696
-4.83906 -6.24527 -0.59696
-4.85906 -6.23527 -0.52696
-5.60906 -6.16527 -0.56696
-5.73906 -6.12527 -0.10696
-4.89906 -6.08527 -0.43696
-5.63906 -6.01527 -0.18696
-5.14906 -5.98527 -0.63696
-6.20906 -5.95527 -0.60696
-4.91906 -5.90527 -0.24696
-6.85906 -5.88527 -0.75696
-6.06906 -5.88527 -0.40696
-6.85906 -5.86527 -4.09696
-6.83906 -5.80527 -0.76696
-6.89906 -5.79527 -0.95696
-6.28906 -5.75527 -0.71696
-6.33906 -5.74527 -0.61696
-6.97906 -5.68527 -0.95696
-6.09906 -5.59527 -0.77696
-5.67906 -5.56527 0.00304
-5.06906 -5.54527 -0.05696
-5.19906 -5.45527 -0.06696
-4.86906 -5.40527 0.18304
-6.85906 -5.29527 -1.15696
-5.97906 -4.82527 0.52304
-5.07906 -4.76527 0.58304
-5.70906 -4.73527 0.84304
-5.30906 -4.63527 0.68304
-6.30906 -4.58527 -1.40696
-4.89906 -4.51527 0.55304
-6.17906 -4.27527 1.36304
-4.95906 -4.20527 0.67304
-4.90906 -4.17527 0.72304
-5.73906 -4.13527 1.04304
-5.86906 -4.13527 1.07304
-5.76906 -4.07527 1.01304
-6.46906 -4.06527 1.21304
-6.70906 -4.02527 -1.42696
-6.60906 -4.02527 1.11304
-6.41906 -4.01527 -1.49696
-5.44906 -3.98527 1.09304
-6.44906 -3.97527 -3.94696
-5.56906 -3.89527 0.83304
-6.73906 -3.80527 -1.37696
-6.88906 -3.78527 -1.90696
-6.52906 -3.78527 1.23304
-5.54906 -3.71527 1.34304
-5.10906 -3.60527 1.38304
-6.54906 -3.60527 -1.39696
-5.32906 -3.40527 1.26304
-4.78906 -3.32527 1.35304
-6.39906 -3.31527 1.60304
-4.81906 -3.17527 1.28304
-5.38906 -3.04527 1.90304
-6.82906 -2.80527 1.11304
-5.78906 -2.78527 1.87304
-6.23906 -2.70527 1.35304
-5.32906 -2.66527 1.94304
-5.31906 -2.64527 1.88304
-5.60906 -2.54527 1.77304
-5.02906 -2.38527 1.94304
-6.62906 -2.35527 1.63304
-6.37906 -2.28527 1.47304
-7.59906 -2.20527 -4.14696
-5.12906 -2.12527 1.85304
-6.15906 -2.07527 1.74304
-5.75906 -2.05527 1.62304
-6.34906 -1.99527 1.26304
-4.90906 -1.98527 1.56304
-7.63906 -1.98527 -1.65696
-5.23906 -1.93527 1.84304
-7.00906 -1.92527 1.18304
-6.25906 -1.92527 1.23304
-5.62906 -1.91527 1.45304
-6.54906 -1.86527 1.20304
-6.05906 -1.85527 1.63304
-6.30906 -1.83527 1.22304
-7.20906 -1.83527 -4.10696
-7.05906 -1.83527 1.05304
-7.70906 -1.80527 -1.36696
-6.83906 -1.77527 1.28304
-5.99906 -1.77527 1.27304
-7.68906 -1.76527 -4.06696
-7.02906 -1.76527 1.10304
-7.75906 -1.69527 -3.73696
-5.56906 -1.67527 1.59304
-4.82906 -1.63527 1.77304
-7.86906 -1.57527 -4.31696
-7.77906 -1.38527 -1.46696
-5.23906 -1.37527 1.16304
-6.87906 -1.33527 0.97304
-7.19906 -1.20527 0.59304
-4.76906 -1.11527 1.08304
-5.58906 -0.96527 1.02304
-8.02906 -0.89527 -1.46696
-5.70906 -0.82527 0.85304
-7.27906 -0.79527 0.36304
-6.21906 -0.76527 0.61304
-5.80906 -0.66527 0.91304
-5.07906 -0.61527 0.98304
-7.97906 -0.52527 0.08304
-8.15906 -0.47527 -0.22696
-5.59906 -0.41527 0.71304
-5.70906 -0.40527 0.44304
-5.45906 -0.33527 0.44304
-7.11906 -0.32527 0.20304
-4.30906 -7.08527 -5.06696
-4.00906 -6.92527 -1.25696
-3.66906 -6.70527 -1.40696
-3.09906 -6.43527 -1.40696
-4.45906 -6.38527 -0.56696
-3.72906 -6.32527 -0.93696
-2.69906 -6.29527 -1.13696
-2.71906 -6.25527 -1.04696
-3.42906 -6.22527 -0.90696
-3.33906 -6.18527 -1.06696
-2.45906 -6.14527 -1.21696
-2.00906 -6.10527 -1.39696
-4.05906 -6.09527 -0.60696
-4.22906 -6.08527 -0.90696
-4.42906 -6.07527 -0.66696
-4.03906 -6.07527 -0.55696
-3.31906 -6.06527 -0.72696
-3.53906 -5.99527 -0.85696
-4.09906 -5.98527 -0.56696
-1.82906 -5.98527 -1.11696
-2.77906 -5.89527 -0.76696
-1.93906 -5.78527 -0.30696
-1.43906 -5.73527 -1.20696
-1.70906 -5.70527 -1.20696
-1.98906 -5.46527 2.37304
-4.67906 -5.44527 -0.00696
-1.82906 -5.35527 2.44304
-0.76906 -5.35527 -1.26696
-2.93906 -5.31527 -0.40696
-0.21906 -5.30527 -1.26696
-2.12906 -5.25527 2.29304
-2.05906 -5.19527 2.45304
-4.29906 -5.17527 0.11304
-1.14906 -5.14527 2.23304
-0.34906 -5.10527 -1.10696
-0.38906 -5.02527 -1.11696
-0.01906 -4.98527 -1.14696
-3.02906 -4.96527 -0.14696
0.19094 -4.94527 -1.33696
0.07094 -4.94527 -1.02696
0.79094 -4.75527 -1.11696
0.13094 -4.73527 -0.97696
0.10094 -4.68527 -0.94696
1.01094 -4.63527 -1.46696
-1.37906 -4.54527 -0.28696
0.07094 -4.53527 -1.11696
0.19094 -4.52527 -1.02696
-1.66906 -4.52527 0.16304
1.05094 -4.52527 -4.89696
-1.43906 -4.50527 2.16304
-2.03906 -4.48527 -0.30696
-3.00906 -4.48527 -0.06696
-4.15906 -4.48527 0.72304
-0.66906 -4.44527 -0.46696
-3.26906 -4.43527 -0.01696
-0.98906 -4.43527 -0.28696
-2.79906 -4.41527 0.06304
-1.18906 -4.41527 -0.55696
-3.71906 -4.38527 0.36304
-3.15906 -4.38527 0.19304
-0.46906 -4.37527 -0.48696
-1.40906 -4.36527 -0.36696
-3.21906 -4.36527 0.18304
-1.20906 -4.36527 -0.27696
-2.25906 -4.35527 -0.04696
-3.54906 -4.34527 0.37304
1.51094 -4.32527 -1.17696
-1.80906 -4.31527 -0.41696
-0.57906 -4.31527 -0.61696
-0.70906 -4.31527 -0.53696
-2.23906 -4.29527 0.00304
-1.59906 -4.29527 2.07304
-4.53906 -4.26527 0.79304
-3.00906 -4.21527 0.20304
1.62094 -4.20527 -1.25696
1.55094 -4.15527 -0.95696
-3.82906 -4.13527 0.52304
-2.31906 -4.13527 0.17304
0.65094 -4.11527 -0.75696
0.79094 -4.11527 -0.70696
-3.69906 -4.10527 0.27304
2.31094 -4.08527 -1.33696
-4.49906 -4.07527 0.62304
-4.56906 -4.06527 0.54304
-0.23906 -4.06527 -0.47696
-3.26906 -4.04527 0.45304
0.67094 -4.00527 -0.63696
-1.32906 -4.00527 -0.08696
-4.62906 -3.99527 0.54304
-3.76906 -3.87527 0.70304
1.58094 -3.82527 -0.72696
-4.06906 -3.79527 0.40304
-2.00906 -3.74527 0.19304
0.75094 -3.71527 -0.46696
-1.46906 -3.71527 0.19304
-4.54906 -3.71527 1.16304
-1.35906 -3.68527 -0.00696
-2.05906 -3.68527 0.30304
2.46094 -3.62527 -0.99696
-4.37906 -3.54527 1.13304
0.79094 -3.52527 -0.64696
-1.19906 -3.49527 0.28304
-3.36906 -3.45527 0.75304
1.52094 -3.44527 -0.79696
-2.47906 -3.44527 0.77304
-0.20906 -3.43527 -0.15696
2.68094 -3.33527 -0.84696
2.09094 -3.26527 -0.53696
-4.53906 -3.26527 1.31304
1.31094 -3.23527 -0.37696
-2.55906 -3.20527 0.76304
0.58094 -3.19527 -0.17696
-0.62906 -3.15527 -4.04696
-3.50906 -3.12527 1.18304
-0.01906 -3.10527 0.09304
-1.56906 -3.09527 0.63304
-2.26906 -3.08527 0.64304
0.43094 -3.07527 0.00304
-2.85906 -3.06527 0.74304
-2.15906 -3.03527 0.49304
-2.87906 -3.02527 1.13304
2.07094 -2.97527 -0.66696
1.29094 -2.89527 -0.51696
-0.52906 -2.88527 -4.12696
1.35094 -2.87527 -0.08696
-0.00906 -2.86527 0.18304
0.75094 -2.81527 -0.05696
2.08094 -2.80527 -0.38696
0.41094 -2.79527 -0.05696
2.17094 -2.76527 -0.58696
-1.03906 -2.76527 0.62304
1.37094 -2.74527 -0.13696
1.92094 -2.73527 -0.11696
2.21094 -2.70527 -0.31696
-0.46906 -2.69527 0.44304
0.67094 -2.67527 0.07304
2.05094 -2.66527 -0.21696
1.24094 -2.66527 -0.23696
2.59094 -2.65527 -0.36696
-0.10906 -2.60527 0.50304
-1.24906 -2.60527 0.55304
-4.59906 -2.60527 1.76304
1.25094 -2.59527 0.15304
1.27094 -2.58527 0.06304
0.33094 -2.56527 0.03304
-1.42906 -2.55527 0.87304
-0.81906 -2.53527 0.73304
-3.58906 -2.52527 1.55304
-0.95906 -2.52527 0.82304
0.51094 -2.51527 0.28304
-2.07906 -2.51527 0.83304
-2.69906 -2.49527 1.28304
-0.78906 -2.48527 0.71304
-1.53906 -2.47527 0.94304
-3.04906 -2.46527 1.25304
-0.24906 -2.44527 0.45304
-0.65906 -2.44527 0.58304
-2.93906 -2.41527 1.19304
-2.92906 -2.41527 1.11304
-2.26906 -2.40527 1.19304
-3.66906 -2.39527 1.54304
2.40094 -2.38527 -0.27696
-1.04906 -2.36527 0.77304
-1.54906 -2.34527 0.75304
-2.93906 -2.33527 1.22304
-3.78906 -2.32527 1.50304
-3.76906 -2.32527 1.47304
1.06094 -2.32527 0.38304
-1.86906 -2.28527 1.12304
-2.79906 -2.28527 1.46304
0.36094 -2.27527 0.54304
-3.71906 -2.26527 1.64304
-2.47906 -2.24527 1.08304
-2.67906 -2.21527 1.43304
-0.66906 -2.21527 0.90304
-3.74906 -2.18527 1.75304
-0.03906 -2.17527 0.43304
-0.85906 -2.17527 0.65304
-1.81906 -2.16527 1.34304
0.18094 -2.15527 0.71304
-3.40906 -2.14527 1.37304
-3.44906 -2.13527 1.62304
1.11094 -2.08527 0.26304
-1.88906 -2.08527 1.26304
-4.22906 -2.05527 1.76304
-4.33906 -2.03527 1.66304
2.62094 -1.94527 -0.12696
1.14094 -1.94527 0.60304
2.65094 -1.92527 0.08304
0.40094 -1.92527 0.71304
-1.55906 -1.87527 1.31304
-3.81906 -1.84527 1.85304
1.97094 -1.79527 0.36304
-3.71906 -1.77527 1.65304
2.37094 -1.72527 0.29304
1.59094 -1.71527 0.44304
-1.64906 -1.62527 1.64304
-4.68906 -1.60527 1.60304
-1.20906 -1.58527 1.42304
-3.81906 -1.57527 1.85304
-2.91906 -1.56527 2.09304
-0.80906 -1.54527 1.09304
-1.66906 -1.50527 1.43304
0.36094 -1.48527 1.11304
-2.71906 -1.41527 2.10304
2.61094 -1.39527 0.50304
2.54094 -1.39527 0.54304
0.82094 -1.38527 0.93304
0.15094 -1.35527 1.23304
1.87094 -1.32527 0.54304
-3.03906 -1.32527 1.73304
-0.89906 -1.28527 1.52304
1.81094 -1.25527 0.66304
-0.44906 -1.24527 1.30304
-2.05906 -1.23527 1.91304
-0.05906 -1.20527 1.27304
-3.97906 -1.19527 1.50304
-4.65906 -1.09527 1.22304
0.74094 -1.03527 0.98304
0.92094 -1.01527 1.26304
1.87094 -0.94527 0.94304
-1.57906 -0.91527 1.80304
1.15094 -0.87527 1.21304
1.73094 -0.85527 0.94304
1.78094 -0.84527 0.74304
-0.44906 -0.84527 1.49304
2.59094 -0.83527 0.86304
0.45094 -0.81527 1.44304
2.15094 -0.78527 0.91304
1.84094 -0.77527 1.12304
1.82094 -0.75527 1.08304
0.88094 -0.74527 1.28304
1.09094 -0.69527 1.18304
1.06094 -0.68527 1.30304
2.05094 -0.68527 0.88304
-0.97906 -0.67527 1.89304
-1.86906 -0.67527 2.12304
0.07094 -0.65527 1.49304
-1.43906 -0.64527 1.78304
-3.75906 -0.62527 1.32304
-1.59906 -0.61527 1.77304
0.28094 -0.61527 1.56304
1.14094 -0.58527 1.16304
0.97094 -0.57527 1.33304
-3.15906 -0.57527 1.50304
-4.04906 -0.57527 1.43304
-2.21906 -0.54527 1.58304
-1.31906 -0.54527 1.75304
-3.27906 -0.53527 1.18304
-2.84906 -0.48527 1.47304
0.21094 -0.48527 1.50304
2.30094 -0.46527 1.21304
0.57094 -0.46527 1.71304
-0.06906 -0.43527 1.87304
-3.40906 -0.41527 1.09304
-2.26906 -0.40527 1.68304
-1.89906 -0.38527 1.64304
-0.69906 -0.38527 1.76304
-0.08906 -0.36527 1.60304
-1.10906 -0.36527 2.04304
-4.08906 -0.35527 1.10304
-3.00906 -0.32527 1.53304
-2.53906 -0.31527 1.32304
-3.25906 -0.31527 1.15304
2.79094 -2.87527 -0.61696
2.79094 -2.31527 -0.19696
2.80094 -3.57527 -1.09696
2.84094 -2.73527 -0.54696
2.84094 -3.06527 -0.77696
3.01094 -0.79527 0.39304
3.03094 -3.22527 -0.76696
3.05094 -0.81527 0.86304
3.06094 -2.86527 -0.86696
3.13094 -0.55527 0.82304
3.23094 -3.05527 -0.90696
3.27094 -1.75527 0.22304
3.28094 -1.07527 0.47304
3.37094 -0.90527 0.54304
3.37094 -0.56527 0.85304
3.39094 -2.57527 -0.77696
3.40094 -1.02527 0.27304
3.47094 -2.94527 -0.78696
3.48094 -2.66527 -0.67696
3.50094 -2.59527 -0.56696
3.50094 -0.45527 0.89304
3.60094 -3.60527 -4.83696
3.62094 -2.81527 -0.86696
3.73094 -3.16527 -1.33696
3.74094 -1.38527 0.19304
3.80094 -0.38527 0.67304
3.90094 -0.89527 0.13304
3.94094 -1.23527 0.01304
3.97094 -1.14527 0.24304
3.97094 -0.58527 0.28304
3.98094 -2.97527 -1.21696
3.98094 -2.30527 -0.42696
4.02094 -0.51527 0.66304
4.13094 -0.97527 0.26304
4.14094 -3.00527 -0.92696
4.16094 -2.62527 -0.76696
4.18094 -3.20527 -1.28696
4.19094 -1.21527 0.00304
4.22094 -3.22527 -1.06696
4.24094 -1.44527 -0.06696
4.25094 -1.11527 -0.12696
4.34094 -3.26527 -1.21696
4.36094 -2.88527 -1.06696
4.41094 -0.70527 0.49304
4.46094 -2.38527 -0.61696
4.52094 -3.00527 -4.68696
4.61094 -1.02527 0.33304
4.66094 -1.63527 -0.26696
4.67094 -1.20527 -0.03696
4.76094 -1.90527 -0.63696
4.78094 -1.22527 -0.11696
4.84094 -1.00527 -0.32696
4.88094 -1.05527 0.01304
4.88094 -0.53527 0.42304
4.90094 -2.54527 -1.01696
5.03094 -1.20527 -0.29696
5.05094 -1.90527 -0.52696
5.07094 -2.95527 -1.21696
5.10094 -1.45527 -0.17696
5.32094 -2.37527 -1.01696
5.36094 -1.62527 -0.48696
5.41094 -1.27527 -0.44696
5.54094 -1.85527 -0.80696
5.55094 -0.82527 0.00304
5.59094 -2.57527 -1.22696
5.64094 -1.12527 -0.27696
5.66094 -1.09527 -0.30696
5.79094 -1.73527 -0.65696
5.89094 -2.57527 -1.21696
5.90094 -1.30527 -0.75696
6.01094 -0.34527 0.11304
6.05094 -0.78527 -0.02696
6.07094 -1.33527 -0.59696
6.11094 -2.22527 -1.38696
6.11094 -2.40527 -4.91696
6.15094 -0.60527 -0.36696
6.25094 -1.28527 -0.52696
6.29094 -0.84527 -0.15696
6.39094 -1.19527 -0.54696
6.47094 -0.32527 -0.09696
6.50094 -2.21527 -1.12696
6.51094 -1.77527 -0.81696
6.61094 -1.20527 -0.83696
6.75094 -1.40527 -0.81696
6.78094 -0.88527 -0.33696
6.89094 -1.45527 -0.70696
7.00094 -1.28527 -0.91696
7.08094 -0.38527 -0.01696
7.13094 -0.42527 -0.21696
7.14094 -1.26527 -0.83696
7.26094 -0.96527 -0.69696
7.30094 -1.31527 -0.76696
7.37094 -1.33527 -0.86696
7.39094 -1.84527 -4.78696
7.40094 -1.46527 -0.91696
7.48094 -1.30527 -1.09696
7.49094 -1.47527 -1.21696
7.53094 -1.49527 -1.22696
7.56094 -1.47527 -4.77696
7.86094 -1.33527 -1.03696
8.03094 -1.60527 -1.41696
8.07094 -0.34527 -0.53696
8.09094 -1.52527 -1.27696
8.15094 -0.88527 -0.82696
8.32094 -1.10527 -1.04696
8.41094 -1.40527 -1.54696
8.48094 -0.75527 -4.67696
8.57094 -1.40527 -1.21696
8.67094 -0.38527 -1.33696
8.89094 -1.00527 -1.35696
8.90094 -0.75527 -4.79696
9.13094 -1.06527 -1.38696
-6.65906 -0.21527 0.12304
-6.52906 -0.08527 0.07304
-6.72906 -0.04527 0.19304
-7.15906 -0.02527 -0.19696
-6.58906 0.02473 0.31304
-7.77906 0.04473 -0.41696
-8.26906 0.05473 -0.97696
-8.42906 0.11473 -0.60696
-8.43906 0.11473 -4.88696
-6.63906 0.12473 -0.02696
-8.02906 0.14473 -4.72696
-8.02906 0.16473 -0.23696
-6.34906 0.19473 0.35304
-8.58906 0.20473 -1.13696
-8.65906 0.21473 -5.02696
-7.48906 0.23473 -0.36696
-7.08906 0.25473 -0.20696
-6.42906 0.26473 -0.14696
-8.01906 0.27473 -0.55696
-6.58906 0.27473 -0.13696
-8.54906 0.32473 -4.91696
-8.57906 0.34473 -1.36696
-7.91906 0.34473 -0.38696
-8.36906 0.39473 -5.04696
-8.64906 0.40473 -0.98696
-8.22906 0.50473 -0.72696
-7.65906 0.51473 -0.36696
-7.36906 0.70473 -0.55696
-7.75906 0.74473 -0.56696
-7.53906 0.96473 -0.73696
-7.57906 1.02473 -0.85696
-8.49906 1.04473 -1.24696
-7.70906 1.24473 -0.95696
-8.72906 1.25473 -1.34696
-6.64906 1.28473 -0.71696
-6.29906 1.37473 -0.76696
-8.46906 1.52473 -1.47696
-7.61906 1.73473 -1.41696
-6.95906 1.99473 -5.04696
-6.66906 2.00473 -1.25696
-6.37906 2.00473 -1.08696
-6.33906 2.04473 -5.07696
-7.07906 2.07473 -1.44696
-7.04906 2.11473 -5.07696
-6.67906 2.11473 -1.18696
-6.58906 2.16473 -1.35696
-6.35906 2.20473 -5.07696
-6.66906 2.21473 -4.99696
-6.53906 2.38473 -1.28696
-1.53906 -0.29527 1.76304
-4.66906 -0.28527 0.77304
-0.29906 -0.28527 1.99304
-3.66906 -0.26527 1.11304
-2.47906 -0.25527 1.56304
-3.19906 -0.24527 1.05304
-5.29906 -0.22527 0.58304
-2.27906 -0.22527 1.35304
-2.32906 -0.21527 1.53304
-4.39906 -0.19527 0.91304
-4.18906 -0.18527 0.81304
-3.86906 -0.17527 0.83304
-1.31906 -0.17527 1.47304
-5.93906 -0.15527 0.41304
1.05094 -0.15527 1.67304
-3.12906 -0.13527 1.29304
-5.08906 -0.12527 0.59304
-4.55906 -0.09527 0.61304
0.70094 -0.09527 1.88304
-3.57906 -0.08527 1.06304
-3.85906 -0.06527 0.81304
0.32094 -0.06527 1.81304
-5.21906 -0.02527 0.29304
-5.93906 0.04473 0.18304
-5.51906 0.10473 0.52304
-4.77906 0.15473 0.67304
-4.19906 0.16473 0.61304
-2.31906 0.21473 1.19304
-1.01906 0.34473 1.55304
-2.10906 0.34473 1.28304
-6.04906 0.34473 0.19304
-1.65906 0.38473 1.05304
-5.31906 0.40473 0.33304
-3.45906 0.44473 0.74304
-3.39906 0.44473 0.83304
-4.28906 0.44473 0.66304
0.35094 0.50473 1.63304
0.20094 0.51473 1.65304
-2.22906 0.53473 1.01304
-0.29906 0.53473 1.70304
-0.57906 0.59473 1.50304
-4.63906 0.65473 0.07304
-1.35906 0.65473 1.25304
-5.67906 0.68473 -0.21696
-3.47906 0.71473 0.43304
-0.51906 0.73473 1.26304
-2.48906 0.80473 0.67304
-4.40906 0.85473 0.10304
-0.90906 0.88473 1.03304
-5.14906 0.88473 -0.09696
0.46094 0.89473 1.77304
-5.84906 0.96473 -0.34696
-2.05906 1.07473 0.65304
-4.41906 1.12473 0.07304
0.69094 1.22473 1.38304
-0.76906 1.24473 0.77304
-3.18906 1.25473 0.30304
-1.53906 1.27473 0.75304
0.10094 1.28473 1.17304
0.70094 1.32473 1.56304
-0.49906 1.34473 0.96304
0.83094 1.36473 1.20304
-2.34906 1.36473 0.63304
0.07094 1.37473 1.05304
-5.60906 1.37473 -0.24696
-5.55906 1.40473 -0.23696
-1.87906 1.40473 0.47304
-1.06906 1.41473 0.61304
0.18094 1.43473 1.01304
-0.68906 1.45473 1.05304
-4.53906 1.45473 0.09304
-3.64906 1.46473 0.10304
-1.68906 1.47473 0.42304
-0.48906 1.50473 0.80304
1.09094 1.51473 1.66304
0.42094 1.52473 1.16304
-1.41906 1.53473 0.90304
-0.53906 1.53473 1.07304
0.13094 1.53473 0.96304
-2.30906 1.54473 0.29304
-1.14906 1.57473 0.55304
-2.12906 1.59473 0.63304
0.32094 1.59473 1.41304
-6.07906 1.59473 -0.78696
-2.93906 1.60473 0.10304
0.60094 1.60473 0.93304
-1.82906 1.64473 0.35304
-2.81906 1.66473 0.31304
-0.39906 1.66473 0.93304
-1.59906 1.66473 0.46304
-5.89906 1.70473 -0.86696
-2.47906 1.71473 0.09304
-4.12906 1.73473 -0.47696
-1.19906 1.74473 0.72304
-3.68906 1.74473 -0.24696
-0.73906 1.76473 0.66304
-3.12906 1.78473 -0.21696
-4.38906 1.79473 -0.38696
-4.73906 1.80473 -0.76696
-4.27906 1.80473 -0.04696
-1.92906 1.81473 0.28304
-5.39906 1.81473 -0.67696
-2.70906 1.84473 -0.15696
-3.80906 1.86473 -0.44696
-5.41906 1.87473 -0.76696
-4.61906 1.87473 -0.57696
-2.79906 1.90473 0.30304
0.22094 1.92473 0.96304
-4.51906 1.93473 -0.63696
-5.64906 1.93473 -0.85696
-6.04906 1.94473 -0.98696
-1.68906 1.94473 0.26304
-2.49906 1.95473 0.03304
-3.55906 1.97473 -0.09696
-4.16906 2.00473 -0.61696
-5.22906 2.01473 -0.80696
0.60094 2.01473 0.84304
1.05094 2.04473 0.95304
-4.34906 2.05473 -0.38696
-5.90906 2.08473 -1.04696
-5.56906 2.13473 -5.14696
-5.93906 2.21473 -0.98696
-0.61906 2.26473 0.39304
0.34094 2.30473 0.36304
-2.59906 2.39473 -0.18696
-2.09906 2.43473 -0.20696
-2.97906 2.45473 -0.58696
-5.80906 2.45473 -1.45696
-3.88906 2.47473 -0.59696
-4.77906 2.49473 -1.00696
-4.11906 2.54473 -0.73696
-0.77906 2.54473 0.39304
-0.08906 2.55473 0.22304
-5.40906 2.57473 -1.09696
-3.45906 2.64473 -0.67696
-1.83906 2.67473 -0.22696
-2.65906 2.68473 -0.59696
-0.34906 2.69473 0.20304
-5.08906 2.70473 -1.17696
-3.90906 2.76473 -0.92696
-0.95906 2.79473 -0.00696
-2.92906 2.85473 -0.64696
-4.83906 2.91473 -1.39696
-0.02906 2.93473 0.11304
-1.63906 2.99473 -0.36696
-0.59906 3.01473 -0.25696
0.83094 3.06473 0.35304
1.23094 3.11473 0.63304
-1.41906 3.14473 -0.31696
0.99094 3.19473 0.21304
-4.75906 3.20473 -5.21696
-3.98906 3.23473 -1.23696
0.40094 3.25473 -0.08696
0.65094 3.29473 0.32304
-0.24906 3.32473 -0.14696
-4.40906 3.32473 -1.23696
-0.03906 3.36473 0.03304
-0.85906 3.38473 -0.37696
0.98094 3.38473 -0.01696
-1.31906 3.38473 -0.56696
-3.58906 3.39473 -1.24696
-2.83906 3.41473 -0.98696
-0.77906 3.43473 -0.06696
-1.45906 3.45473 -0.66696
0.28094 3.45473 -0.15696
-2.30906 3.46473 -1.02696
0.61094 3.50473 0.17304
-2.11906 3.52473 -0.73696
-1.01906 3.54473 -0.40696
-2.12906 3.56473 -0.85696
-0.29906 3.57473 -0.40696
-2.71906 3.58473 -1.02696
0.63094 3.61473 -0.18696
-3.42906 3.62473 -4.95696
-2.90906 3.64473 -0.86696
-3.32906 3.65473 -1.31696
-0.93906 3.66473 -0.40696
-1.76906 3.67473 -0.72696
-2.07906 3.67473 -0.92696
-3.03906 3.69473 -4.99696
-3.60906 3.70473 -1.18696
-2.66906 3.72473 -1.10696
-1.52906 3.72473 -0.88696
-2.42906 3.74473 -1.05696
-1.74906 3.74473 -0.60696
-2.13906 3.79473 -4.91696
-2.49906 3.81473 -0.98696
-3.20906 3.81473 -4.98696
-3.10906 3.82473 -1.29696
-1.16906 3.83473 -0.73696
-2.86906 3.86473 -5.03696
-3.13906 3.88473 -1.45696
-2.46906 3.94473 -1.22696
-0.26906 3.96473 -0.55696
-2.26906 4.05473 -1.19696
0.61094 4.08473 -0.27696
0.99094 4.12473 -0.13696
0.31094 4.32473 -0.68696
-0.38906 4.34473 -0.89696
-0.61906 4.37473 -1.06696
-0.12906 4.46473 -0.88696
1.19094 4.48473 -0.49696
-1.25906 4.57473 -1.34696
-0.51906 4.59473 -1.09696
-0.51906 4.98473 -1.40696
-0.64906 5.00473 -1.28696
0.40094 5.11473 -1.09696
0.74094 5.15473 -0.98696
1.12094 5.26473 -4.90696
0.16094 5.29473 -1.35696
0.48094 5.33473 -5.00696
1.25094 5.33473 -0.74696
1.23094 5.35473 -0.98696
1.11094 5.37473 -1.00696
0.57094 5.39473 -1.09696
0.46094 5.44473 -1.29696
0.56094 5.47473 -1.28696
0.73094 5.48473 -5.02696
0.98094 5.52473 -1.28696
1.14094 5.54473 -0.99696
0.99094 5.57473 -1.32696
1.26094 1.02473 1.55304
1.29094 3.62473 0.10304
1.36094 3.43473 0.52304
1.37094 3.22473 0.50304
1.38094 5.16473 -0.86696
1.40094 1.25473 1.80304
1.41094 3.47473 0.12304
1.44094 0.79473 1.85304
1.45094 2.80473 0.50304
1.46094 1.29473 1.46304
1.47094 2.10473 1.25304
1.49094 0.05473 1.71304
1.57094 1.33473 1.58304
1.58094 3.12473 0.48304
1.58094 3.31473 0.37304
1.59094 4.70473 -0.57696
1.62094 2.45473 0.76304
1.64094 5.06473 -0.44696
1.68094 2.87473 0.62304
1.71094 1.08473 1.92304
1.77094 5.29473 -0.76696
1.78094 3.01473 0.61304
1.84094 1.43473 1.50304
1.88094 1.43473 1.84304
1.88094 4.06473 0.00304
1.89094 1.09473 1.71304
1.90094 5.27473 -0.30696
1.94094 4.85473 -0.57696
1.94094 0.12473 1.82304
2.06094 0.44473 1.74304
2.08094 3.15473 0.70304
2.09094 1.22473 1.75304
2.13094 3.05473 0.75304
2.15094 3.35473 0.68304
2.25094 4.62473 -0.17696
2.25094 2.94473 0.78304
2.28094 3.24473 0.43304
2.28094 0.11473 1.33304
2.37094 2.04473 1.52304
2.37094 4.48473 0.01304
2.42094 5.22473 -0.48696
2.46094 0.66473 1.76304
2.51094 2.00473 1.47304
2.59094 3.47473 0.47304
2.61094 1.03473 2.16304
2.63094 3.91473 0.35304
2.65094 5.19473 -0.30696
2.69094 1.35473 1.96304
2.71094 2.30473 1.26304
2.74094 2.12473 1.59304
2.78094 3.08473 0.93304
2.80094 3.00473 0.77304
2.80094 2.45473 1.15304
2.83094 0.10473 1.43304
2.87094 4.35473 0.35304
2.89094 4.13473 0.17304
2.90094 3.17473 0.76304
2.90094 1.09473 1.82304
2.93094 3.27473 0.92304
2.95094 4.71473 -0.14696
3.02094 1.41473 1.93304
3.05094 5.20473 -0.47696
3.05094 0.21473 1.48304
3.11094 3.34473 0.98304
3.17094 0.96473 1.72304
3.24094 2.24473 1.63304
3.25094 0.47473 1.54304
3.35094 2.33473 1.62304
3.48094 1.25473 1.76304
3.58094 1.33473 2.02304
3.62094 1.24473 1.51304
3.66094 1.42473 1.58304
3.70094 2.13473 1.54304
3.80094 0.40473 1.33304
3.86094 0.90473 1.53304
3.92094 1.14473 1.72304
4.13094 1.57473 1.78304
4.17094 0.22473 1.07304
4.25094 1.00473 1.45304
4.35094 0.56473 1.30304
4.43094 0.97473 1.36304
4.45094 1.30473 1.84304
4.52094 0.73473 1.13304
4.53094 1.14473 1.17304
4.57094 0.83473 1.20304
4.59094 0.90473 1.05304
4.67094 0.38473 1.08304
4.90094 0.94473 1.08304
5.03094 0.93473 1.10304
5.06094 1.05473 1.17304
5.18094 -0.10527 0.52304
5.22094 0.34473 0.82304
5.23094 0.77473 1.07304
5.30094 0.11473 0.67304
5.34094 0.06473 0.39304
5.36094 0.82473 0.95304
5.38094 1.05473 1.04304
5.52094 1.49473 1.49304
5.69094 0.30473 0.48304
5.76094 0.57473 0.90304
5.86094 1.00473 1.02304
5.93094 0.70473 0.79304
6.00094 -0.27527 0.24304
6.08094 0.07473 0.52304
6.18094 0.73473 0.67304
6.36094 0.93473 0.43304
6.37094 1.00473 0.62304
6.43094 1.41473 1.18304
6.44094 4.93473 -4.84696
6.48094 0.79473 0.74304
6.51094 3.88473 -4.68696
6.61094 4.43473 -4.83696
6.63094 0.64473 0.51304
6.64094 1.49473 1.17304
6.64094 1.43473 1.14304
6.86094 0.53473 0.74304
6.88094 0.50473 0.49304
6.91094 1.12473 0.52304
7.01094 0.64473 0.29304
7.20094 0.79473 0.58304
7.22094 0.84473 0.26304
7.23094 0.72473 0.48304
7.24094 0.31473 0.21304
7.30094 0.57473 0.31304
7.42094 1.38473 0.75304
7.45094 2.65473 -4.40696
7.45094 2.31473 -1.36696
7.66094 0.98473 0.47304
7.67094 1.68473 1.13304
7.75094 1.51473 -4.37696
7.76094 0.44473 0.09304
7.80094 0.55473 0.06304
7.89094 0.75473 0.35304
7.90094 0.04473 -0.04696
7.96094 0.51473 0.13304
7.97094 0.18473 -0.09696
8.01094 0.65473 0.05304
8.03094 0.79473 -1.06696
8.10094 -0.18527 -0.19696
8.13094 0.73473 -0.14696
8.25094 -0.14527 -4.63696
8.39094 0.27473 -4.67696
8.53094 -0.21527 -0.90696
1.95094 5.46473 -0.86696
2.00094 5.40473 -0.73696
2.16094 5.52473 -0.86696
2.33094 6.28473 -1.22696
2.62094 5.39473 -0.61696
2.65094 5.56473 -0.78696
2.69094 5.39473 -0.48696
2.83094 6.25473 -1.23696
3.25094 6.29473 -0.87696
3.58094 6.36473 -0.92696
3.63094 6.83473 -1.36696
3.89094 6.98473 -1.27696
3.94094 6.87473 -4.92696
3.95094 6.07473 -0.72696
3.97094 7.06473 -4.84696
4.17094 7.02473 -4.94696
4.19094 6.77473 -1.01696
4.31094 6.30473 -1.03696
4.38094 6.62473 -0.81696
4.41094 6.56473 -0.83696
4.45094 6.92473 -1.10696
4.47094 7.08473 -0.99696
4.53094 6.91473 -0.98696
4.57094 6.80473 -4.80696
4.58094 7.28473 -1.09696
4.69094 7.22473 -1.33696
4.70094 7.20473 -4.82696
4.80094 6.71473 -0.83696
4.86094 6.95473 -4.82696
5.11094 7.47473 -1.36696
5.19094 7.00473 -0.80696
5.21094 7.49473 -1.37696
5.27094 7.18473 -4.89696
5.31094 7.45473 -1.36696
5.58094 5.59473 -4.83696
5.65094 6.51473 -1.14696
