-7.50228 -3.70240 -0.34778
-4.65228 -3.67240 -0.22778
-4.46228 -3.60240 -0.23778
-8.00228 -3.58240 -0.46778
-7.02228 -3.51240 -0.33778
-7.30228 -3.51240 -0.15778
-7.75228 -3.33240 -4.11778
-8.04228 -3.14240 -3.15778
-5.55228 -3.13240 -0.07778
-4.30228 -3.04240 -0.07778
-4.48228 -3.03240 0.00222
-5.38228 -3.03240 -0.03778
-4.55228 -3.00240 0.02222
-7.91228 -2.99240 -0.50778
-3.77228 -2.98240 0.15222
-5.51228 -2.85240 0.08222
-4.79228 -2.78240 0.12222
-6.52228 -2.68240 0.10222
-6.43228 -2.60240 0.15222
-5.83228 -2.59240 0.24222
-7.52228 -2.50240 -0.20778
-3.97228 -2.49240 0.20222
-5.22228 -2.47240 0.13222
-6.30228 -2.47240 0.13222
-5.47228 -2.45240 0.26222
-6.83228 -2.39240 -0.05778
-4.96228 -2.32240 0.27222
-7.81228 -2.17240 -0.47778
-5.93228 -2.15240 0.31222
-3.99228 -2.11240 0.44222
-7.30228 -2.09240 -0.18778
-6.89228 -1.98240 0.03222
-7.21228 -1.95240 -0.13778
-3.93228 -1.94240 0.49222
-5.00228 -1.92240 0.56222
-6.13228 -1.92240 0.29222
-6.35228 -1.92240 0.20222
-7.82228 -1.81240 -0.40778
-5.98228 -1.72240 0.34222
-8.04228 -1.70240 -2.48778
-4.49228 -1.66240 0.50222
-8.00228 -1.64240 -2.56778
-6.95228 -1.51240 -0.05778
-7.03228 -1.40240 -0.03778
-7.24228 -1.40240 -0.09778
-4.83228 -1.39240 0.78222
-7.90228 -1.30240 -0.48778
-4.15228 -1.20240 0.81222
-5.40228 -1.11240 0.55222
-5.15228 -1.03240 0.78222
-8.01228 -0.98240 -2.37778
-7.91228 -0.91240 -0.49778
-4.52228 -0.90240 0.86222
-5.69228 -0.88240 0.46222
-6.14228 -0.84240 0.31222
-4.32228 -0.84240 1.00222
-7.12228 -0.67240 -0.14778
-6.29228 -0.61240 0.16222
-4.08228 -0.55240 1.07222
-4.28228 -0.53240 1.08222
-7.89228 -0.46240 -3.00778
-5.42228 -0.38240 0.53222
-6.55228 -0.38240 0.09222
-5.04228 -0.37240 0.69222
-5.26228 -0.32240 0.62222
-5.20228 -0.32240 0.74222
-6.00228 -0.20240 0.33222
-6.25228 -0.11240 0.21222
-7.18228 -0.10240 -0.17778
-6.95228 -0.03240 0.00222
-7.23228 0.10760 -0.25778
-6.30228 0.11760 0.21222
-7.41228 0.12760 -0.24778
-7.89228 0.14760 -0.50778
-7.96228 0.16760 -3.07778
-4.09228 0.19760 0.89222
-6.08228 0.19760 0.41222
-3.80228 0.23760 1.01222
-5.08228 0.39760 0.68222
-8.02228 0.40760 -2.62778
-4.33228 0.41760 0.96222
-6.05228 0.60760 0.26222
-7.18228 0.62760 -0.20778
-6.96228 0.70760 -0.00778
-4.68228 0.75760 0.81222
-4.63228 0.76760 0.83222
-3.92228 0.77760 0.87222
-7.02228 0.81760 -0.08778
-5.22228 0.92760 0.66222
-5.63228 0.94760 0.50222
-7.99228 0.95760 -2.45778
-7.95228 1.03760 -0.81778
-3.87228 1.03760 0.70222
-6.60228 1.11760 0.10222
-7.83228 1.22760 -0.41778
-5.55228 1.27760 0.56222
-7.59228 1.29760 -0.38778
-4.81228 1.29760 0.64222
-4.23228 1.33760 0.51222
-6.11228 1.43760 0.25222
-5.21228 1.51760 0.47222
-4.75228 1.56760 0.44222
-6.18228 1.68760 0.30222
-3.82228 1.72760 0.19222
-6.42228 1.78760 0.21222
-5.71228 1.81760 0.38222
-7.12228 1.85760 -0.20778
-4.85228 1.92760 0.18222
-7.00228 1.93760 -0.13778
-5.64228 2.09760 0.27222
-5.86228 2.12760 0.07222
-7.28228 2.28760 -0.29778
-6.88228 2.32760 -0.09778
-4.34228 2.32760 0.13222
-6.60228 2.32760 -0.02778
-7.86228 2.37760 -1.18778
-4.24228 2.52760 -0.06778
-7.87228 2.53760 -0.55778
-6.53228 2.61760 0.05222
-5.26228 2.69760 0.05222
-4.53228 2.70760 -0.16778
-7.49228 2.83760 -0.33778
-4.34228 2.83760 -0.11778
-5.24228 2.86760 0.05222
-6.28228 2.87760 -0.09778
-5.54228 2.89760 -0.13778
-4.25228 2.94760 -0.12778
-7.29228 3.04760 -0.21778
-6.53228 3.08760 -0.29778
-7.41228 3.13760 -0.25778
-4.23228 3.18760 -0.24778
-7.53228 3.28760 -0.40778
-5.22228 3.35760 -0.27778
-5.22228 3.36760 -0.24778
-6.13228 3.38760 -0.18778
-5.16228 3.48760 -0.31778
-6.20228 3.52760 -0.32778
-4.20228 3.52760 -0.37778
-7.16228 3.69760 -0.45778
-6.07228 3.85760 -0.83778
-7.01228 3.88760 -0.52778
-3.63228 -3.56240 -0.25778
-3.61228 -1.46240 0.66222
-3.58228 -2.21240 0.39222
-3.46228 -3.20240 -0.01778
-3.43228 -0.11240 1.20222
-3.41228 -1.40240 0.74222
-3.39228 -3.60240 -0.30778
-3.25228 -0.72240 1.09222
-3.13228 -1.37240 0.75222
-3.10228 -0.00240 0.99222
-3.09228 -0.72240 1.02222
-3.03228 -2.48240 0.28222
-2.99228 -2.66240 0.24222
-2.98228 -2.29240 0.31222
-2.93228 -0.27240 1.27222
-2.73228 -3.16240 0.01222
-2.69228 -2.03240 0.34222
-2.66228 -2.78240 0.09222
-2.51228 -0.67240 1.03222
-2.50228 -1.94240 0.62222
-2.43228 -3.37240 -0.14778
-2.21228 -0.92240 1.04222
-2.13228 -3.02240 0.08222
-2.12228 -0.28240 1.17222
-2.11228 -1.55240 0.75222
-2.11228 -0.89240 0.97222
-2.09228 -0.19240 1.05222
-2.09228 -0.01240 1.15222
-2.02228 -0.82240 1.05222
-1.99228 -2.83240 0.14222
-1.97228 -2.48240 0.31222
-1.77228 -2.60240 0.08222
-1.74228 -3.35240 -0.12778
-1.69228 -3.36240 -0.03778
-1.59228 -1.24240 0.74222
-1.59228 -2.49240 0.34222
-1.58228 0.23760 1.01222
-1.42228 -3.55240 -0.06778
-1.23228 -3.56240 -0.17778
-1.21228 -0.54240 1.16222
-1.20228 -0.84240 0.92222
-1.17228 -1.11240 0.90222
-1.12228 -1.36240 0.84222
-1.10228 -1.06240 0.86222
-1.09228 -0.38240 1.11222
-1.07228 -1.72240 0.61222
-1.00228 -3.00240 0.01222
-0.95228 -2.67240 0.22222
-0.86228 -3.15240 -0.03778
-0.82228 -3.91240 -0.31778
-0.76228 0.25760 1.11222
-0.68228 -3.05240 0.08222
-0.66228 -3.55240 -0.09778
-0.66228 -1.81240 0.54222
-0.56228 0.05760 1.07222
-0.39228 -3.72240 -0.21778
-0.29228 -1.09240 0.95222
-0.28228 -1.42240 0.64222
-0.21228 -1.91240 0.59222
-0.14228 -1.30240 0.85222
-0.10228 -0.58240 1.21222
-0.10228 -1.23240 0.83222
-0.05228 -1.90240 0.57222
-0.03228 -3.17240 0.04222
0.04772 -3.72240 -0.26778
0.04772 0.24760 0.97222
0.05772 -2.86240 0.20222
0.14772 -0.28240 1.20222
0.23772 -3.60240 -0.16778
0.26772 -2.38240 0.25222
0.36772 -3.74240 -0.18778
0.46772 -0.12240 1.15222
0.62772 -1.64240 0.74222
0.63772 -3.90240 -0.25778
0.63772 -1.98240 0.42222
0.69772 -2.46240 0.39222
0.88772 -1.49240 0.86222
0.88772 -1.40240 0.79222
0.92772 -0.27240 1.17222
0.93772 -0.77240 1.06222
0.95772 -3.34240 0.00222
0.96772 -2.07240 0.52222
1.07772 -3.05240 0.09222
1.07772 -0.85240 0.96222
1.16772 -0.21240 1.17222
1.19772 -2.96240 0.04222
1.40772 -3.93240 -0.17778
1.47772 -0.29240 1.22222
1.53772 -2.20240 0.50222
1.55772 -2.55240 0.24222
1.59772 -3.00240 0.21222
1.66772 -4.07240 -0.32778
1.82772 -0.81240 1.12222
1.89772 -1.57240 0.67222
1.93772 -1.68240 0.77222
1.94772 -0.96240 1.09222
1.95772 -3.51240 -0.07778
1.99772 -2.25240 0.52222
1.99772 -1.42240 0.78222
2.08772 -0.77240 1.03222
2.09772 -3.24240 0.04222
2.09772 -0.21240 1.15222
2.12772 -3.53240 -0.19778
2.44772 -4.12240 -0.26778
2.45772 -2.75240 0.29222
2.46772 -3.11240 0.03222
2.50772 -3.55240 -0.05778
2.51772 -0.47240 1.10222
2.64772 0.13760 1.01222
2.73772 -1.35240 0.96222
2.76772 0.13760 1.02222
2.88772 -1.74240 0.68222
2.91772 -1.99240 0.50222
2.93772 -3.67240 -0.11778
2.96772 -1.87240 0.72222
2.98772 -1.14240 0.81222
3.00772 -1.34240 0.82222
3.01772 -2.42240 0.42222
3.02772 -0.77240 0.88222
3.05772 -4.10240 -0.39778
3.10772 -3.43240 -0.03778
3.36772 -3.30240 0.01222
3.38772 -3.68240 -0.22778
3.42772 -4.10240 -0.21778
3.59772 -0.64240 0.60222
3.64772 -1.91240 0.61222
3.68772 -0.03240 0.63222
3.70772 -0.45240 0.63222
3.83772 -2.55240 0.33222
3.90772 -1.91240 0.34222
3.93772 -3.85240 -0.19778
3.93772 -1.92240 0.44222
3.96772 -1.34240 0.52222
4.02772 -2.05240 0.38222
4.04772 -1.32240 0.45222
4.04772 -2.59240 0.32222
4.12772 -3.62240 -0.09778
4.16772 -0.04240 0.54222
4.28772 -3.86240 -0.22778
4.42772 0.15760 0.50222
4.51772 -0.23240 0.66222
4.57772 -2.47240 0.16222
4.62772 -0.82240 0.50222
4.62772 -1.01240 0.52222
4.68772 -0.20240 0.62222
4.76772 -3.13240 0.07222
4.86772 -2.51240 0.06222
4.90772 -1.92240 0.01222
4.92772 -2.08240 0.02222
4.93772 -4.02240 -0.26778
5.07772 -0.58240 0.54222
5.09772 -1.49240 0.06222
5.10772 -2.77240 -0.07778
5.11772 -2.22240 -0.13778
5.14772 -3.81240 -0.17778
5.42772 -0.77240 0.58222
5.43772 0.02760 0.62222
5.46772 -0.03240 0.46222
5.49772 -3.03240 -0.22778
5.58772 -1.64240 -0.21778
5.61772 -2.27240 3.31222
5.63772 -2.29240 3.35222
5.64772 -0.99240 0.53222
5.67772 -0.37240 0.51222
5.95772 -1.75240 1.56222
6.01772 -1.20240 -0.14778
6.39772 -1.38240 -0.65778
6.41772 -0.59240 -0.73778
6.62772 -0.17240 -0.76778
6.75772 -0.39240 -0.78778
6.79772 -1.16240 -0.75778
6.79772 -0.53240 -0.80778
6.88772 0.20760 -0.81778
6.96772 -1.82240 -0.87778
7.22772 -1.83240 -0.94778
7.31772 -1.93240 -0.88778
7.33772 -1.15240 -0.98778
7.43772 0.24760 -0.85778
7.69772 -0.96240 -0.98778
7.70772 -0.35240 -1.08778
7.80772 -0.35240 -0.95778
7.81772 -0.70240 -1.06778
7.84772 -1.33240 -1.00778
8.25772 -1.70240 -1.12778
8.35772 -0.30240 -1.06778
8.61772 -1.52240 -1.18778
8.70772 -0.91240 -1.19778
8.76772 -0.54240 -1.30778
8.76772 0.25760 -1.21778
8.84772 -0.87240 -1.28778
8.89772 -1.50240 -1.25778
9.19772 0.24760 -1.33778
9.26772 -0.85240 -1.33778
9.27772 0.16760 -1.24778
-3.02228 0.25760 1.10222
8.71772 0.27760 -1.20778
5.77772 0.29760 0.55222
1.66772 0.30760 0.97222
3.61772 0.30760 0.70222
1.19772 0.31760 0.88222
0.25772 0.32760 1.01222
3.37772 0.34760 0.70222
-2.59228 0.40760 0.94222
8.16772 0.42760 -1.27778
7.72772 0.43760 -1.00778
0.68772 0.48760 0.85222
-2.98228 0.50760 0.86222
3.24772 0.53760 0.80222
2.34772 0.54760 0.61222
4.53772 0.55760 0.55222
-3.60228 0.58760 0.85222
7.09772 0.59760 -0.87778
6.67772 0.62760 -0.83778
-0.30228 0.65760 0.85222
1.85772 0.66760 0.79222
8.33772 0.73760 -1.08778
1.31772 0.74760 0.54222
6.02772 0.76760 -0.37778
-1.65228 0.76760 0.78222
-0.83228 0.76760 0.71222
5.60772 0.79760 -0.27778
6.52772 0.79760 -0.68778
-1.28228 0.82760 0.69222
4.86772 0.82760 0.40222
7.79772 0.82760 -0.96778
5.93772 0.83760 0.02222
2.72772 0.83760 0.65222
-0.64228 0.84760 0.75222
0.28772 0.85760 0.73222
9.20772 0.86760 -1.23778
0.28772 0.93760 0.50222
4.96772 0.93760 0.10222
4.53772 0.96760 0.18222
8.71772 0.97760 -1.23778
-2.26228 0.99760 0.68222
2.34772 1.05760 0.59222
3.63772 1.09760 0.54222
3.89772 1.11760 0.47222
-0.74228 1.13760 0.43222
3.50772 1.14760 0.35222
7.68772 1.14760 -0.94778
-3.24228 1.16760 0.57222
0.94772 1.19760 0.53222
2.88772 1.28760 0.39222
-2.55228 1.28760 0.59222
-1.71228 1.28760 0.51222
6.67772 1.31760 -0.77778
7.40772 1.31760 -0.90778
-1.76228 1.33760 0.37222
2.49772 1.33760 0.32222
5.61772 1.34760 -0.24778
1.85772 1.35760 0.39222
-1.54228 1.36760 0.55222
5.03772 1.37760 0.04222
6.88772 1.37760 -0.77778
3.94772 1.38760 0.49222
-0.60228 1.38760 0.46222
9.33772 1.39760 -1.27778
8.28772 1.42760 -1.11778
1.86772 1.46760 0.36222
5.64772 1.48760 -0.24778
-2.78228 1.52760 0.27222
1.48772 1.53760 0.21222
1.43772 1.58760 0.39222
2.74772 1.62760 0.36222
0.84772 1.64760 0.23222
4.60772 1.65760 0.21222
0.04772 1.71760 0.32222
0.48772 1.73760 0.12222
8.56772 1.79760 -1.18778
-2.58228 1.80760 0.30222
-0.18228 1.81760 0.26222
3.61772 1.81760 0.24222
-3.45228 1.81760 0.37222
0.97772 1.87760 0.17222
6.46772 1.89760 -0.67778
-2.44228 1.89760 0.35222
3.03772 1.90760 0.23222
4.68772 1.90760 0.24222
-1.49228 1.91760 0.18222
-0.52228 1.92760 0.06222
4.11772 1.93760 0.17222
5.96772 1.93760 -0.40778
8.42772 1.94760 -1.12778
7.51772 1.97760 -0.95778
-1.19228 1.99760 0.20222
2.63772 1.99760 0.11222
7.36772 1.99760 -0.91778
-1.53228 2.11760 0.06222
0.54772 2.11760 0.23222
9.20772 2.12760 -1.27778
9.27772 2.13760 -1.28778
6.45772 2.15760 -0.70778
1.85772 2.15760 0.13222
-2.20228 2.16760 0.12222
1.64772 2.16760 0.12222
-0.85228 2.24760 0.19222
8.22772 2.30760 -1.03778
-2.53228 2.31760 -0.00778
5.35772 2.32760 -0.08778
-3.47228 2.32760 0.13222
0.66772 2.33760 -0.03778
-3.23228 2.34760 0.06222
9.63772 2.35760 -1.42778
0.08772 2.39760 0.03222
-3.35228 2.42760 0.08222
3.81772 2.42760 -0.10778
2.13772 2.43760 0.01222
-2.40228 2.45760 0.02222
3.21772 2.46760 0.03222
7.19772 2.48760 -0.94778
5.04772 2.48760 -0.11778
5.51772 2.49760 -0.11778
7.51772 2.49760 -0.95778
-3.54228 2.50760 -0.07778
-0.32228 2.50760 0.02222
4.33772 2.52760 -0.17778
8.81772 2.52760 -1.18778
8.59772 2.53760 -1.16778
6.44772 2.56760 -0.71778
-0.34228 2.62760 -0.07778
6.13772 2.65760 -0.54778
-1.29228 2.67760 -0.08778
0.96772 2.67760 -0.10778
8.27772 2.69760 -1.08778
3.30772 2.71760 -0.22778
7.57772 2.72760 -1.03778
9.17772 2.74760 -1.32778
-1.77228 2.78760 0.03222
5.07772 2.82760 -0.21778
-2.29228 2.84760 -0.06778
6.54772 2.90760 -0.77778
2.29772 2.91760 -0.37778
-0.79228 2.91760 -0.20778
2.93772 2.94760 -0.33778
1.23772 2.96760 -0.12778
-3.30228 2.98760 -0.18778
2.31772 2.99760 -0.16778
4.07772 3.00760 -0.31778
-3.26228 3.01760 -0.16778
4.15772 3.01760 -0.23778
4.59772 3.03760 -0.23778
5.49772 3.08760 -0.49778
1.26772 3.11760 -0.39778
5.50772 3.15760 -0.33778
-1.25228 3.16760 -0.17778
3.04772 3.17760 -0.30778
0.07772 3.20760 -0.30778
2.25772 3.26760 -3.85778
4.49772 3.27760 -0.56778
-2.66228 3.29760 -0.28778
0.24772 3.30760 -0.44778
2.03772 3.35760 -0.47778
5.89772 3.39760 -3.78778
5.12772 3.42760 -0.49778
-1.66228 3.42760 -0.41778
0.56772 3.44760 -3.64778
2.04772 3.46760 -0.55778
0.33772 3.48760 -0.37778
-0.79228 3.50760 -0.49778
1.42772 3.51760 -0.40778
1.02772 3.53760 -0.55778
3.27772 3.54760 -0.48778
-0.62228 3.55760 -3.55778
-0.43228 3.65760 -4.01778
-2.14228 3.68760 -0.43778
-2.35228 3.76760 -3.80778
-3.56228 3.81760 -0.54778
