-7.44140 -1.12960 -4.71904
-7.42140 -0.29960 -4.57904
-7.39140 -2.56960 -1.30904
-7.35140 -2.69960 -4.81904
-7.35140 1.42040 -4.62904
-7.33140 0.53040 -1.36904
-7.29140 -1.66960 -1.34904
-7.27140 -2.67960 -1.32904
-7.21140 1.57040 -4.61904
-7.15140 -2.67960 -1.27904
-7.08140 4.05040 -1.35904
-7.07140 -1.69960 -1.14904
-7.01140 -0.63960 -1.25904
-6.99140 -1.90960 -1.15904
-6.97140 0.46040 -1.27904
-6.97140 2.53040 -1.29904
-6.92140 -0.75960 -1.20904
-6.88140 2.20040 -1.23904
-6.85140 0.10040 -1.16904
-6.85140 1.63040 -1.08904
-6.84140 3.50040 -1.17904
-6.79140 3.43040 -1.19904
-6.78140 -0.16960 -1.10904
-6.73140 -0.63960 -1.07904
-6.71140 -1.47960 -1.13904
-6.68140 2.36040 -1.02904
-6.59140 1.20040 -1.06904
-6.58140 -3.03960 -1.00904
-6.57140 -2.92960 -0.98904
-6.57140 2.34040 -1.06904
-6.53140 0.82040 -0.97904
-6.52140 1.23040 -1.05904
-6.51140 4.02040 -1.20904
-6.47140 0.03040 -0.97904
-6.43140 -2.17960 -0.95904
-6.41140 3.07040 -1.07904
-6.37140 -2.87960 -0.94904
-6.33140 -3.15960 -1.08904
-6.28140 3.57040 -1.07904
-6.18140 -1.10960 -0.84904
-6.16140 -1.86960 -0.83904
-6.12140 -2.40960 -0.83904
-6.05140 1.16040 -0.86904
-6.02140 -0.95960 -0.80904
-6.02140 0.25040 -0.80904
-6.02140 2.33040 -0.90904
-6.02140 3.03040 -0.84904
-6.00140 1.70040 -0.90904
-5.97140 -0.39960 -0.80904
-5.93140 -1.10960 -0.73904
-5.88140 3.27040 -0.98904
-5.83140 -0.33960 -0.64904
-5.78140 0.74040 -0.68904
-5.77140 -3.52960 -1.07904
-5.76140 -1.68960 -0.72904
-5.72140 2.19040 -0.72904
-5.71140 1.83040 -0.74904
-5.63140 3.51040 -0.99904
-5.62140 1.03040 -0.64904
-5.60140 -3.09960 -0.96904
-5.60140 0.65040 -0.71904
-5.60140 -0.48960 -0.65904
-5.55140 -2.69960 -0.90904
-5.50140 2.88040 -0.87904
-5.47140 3.10040 -0.90904
-5.43140 -3.06960 -0.97904
-5.35140 -1.58960 -0.58904
-5.24140 -2.03960 -0.56904
-5.23140 0.68040 -0.53904
-5.22140 -2.95960 -1.05904
-5.19140 2.55040 -0.66904
-5.13140 1.20040 -0.53904
-5.13140 -1.57960 -0.42904
-5.11140 -1.16960 -0.39904
-5.10140 -0.89960 -0.42904
-5.07140 2.13040 -0.65904
-5.06140 0.03040 -0.45904
-4.98140 3.66040 -1.17904
-4.96140 3.11040 -0.88904
-4.95140 0.27040 -0.39904
-4.87140 -0.51960 -0.33904
-4.85140 1.33040 -0.30904
-4.79140 -1.90960 -0.44904
-4.75140 2.02040 -0.56904
-4.75140 2.99040 -0.87904
-4.73140 -0.99960 -0.29904
-4.72140 0.82040 -0.31904
-4.70140 0.48040 -0.23904
-4.68140 -3.22960 -1.04904
-4.66140 2.61040 -0.71904
-4.61140 -3.25960 -1.01904
-4.56140 2.68040 -0.80904
-4.50140 -2.09960 -0.65904
-4.48140 -3.24960 -1.01904
-4.42140 0.20040 -0.21904
-4.37140 2.07040 -0.49904
-4.34140 3.93040 -1.53904
-4.33140 -3.50960 -1.26904
-4.31140 -2.06960 -0.52904
-4.30140 -2.19960 -0.67904
-4.24140 0.70040 -0.18904
-4.20140 -1.42960 -0.41904
-4.17140 -1.35960 -0.25904
-4.14140 -0.18960 -0.09904
-4.10140 -0.17960 -0.05904
-4.10140 3.14040 -0.96904
-4.09140 1.93040 -0.66904
-4.04140 2.94040 -0.82904
-3.99140 0.82040 0.04096
-3.89140 -0.68960 -0.00904
-3.86140 3.72040 -1.08904
-3.86140 2.48040 -0.59904
-3.86140 -1.52960 -0.36904
-3.85140 2.13040 -0.56904
-3.80140 0.63040 -0.06904
-3.79140 -2.08960 -0.54904
-3.78140 0.32040 0.10096
-3.77140 1.84040 -0.45904
-3.65140 -2.61960 -0.84904
-3.62140 2.50040 -0.78904
-3.62140 -0.26960 0.14096
-3.61140 -3.42960 -1.22904
-3.55140 -3.41960 -1.12904
-3.53140 1.58040 -0.29904
-3.49140 -2.55960 -0.70904
-3.37140 0.20040 0.25096
-3.35140 3.73040 -1.38904
-3.35140 -2.35960 -0.76904
-3.32140 -0.67960 -0.04904
-3.31140 -1.98960 -0.67904
-3.23140 2.62040 -0.76904
-3.22140 -1.52960 -0.36904
-3.21140 3.90040 -1.36904
-3.13140 -0.37960 0.12096
-3.13140 0.30040 0.17096
-3.11140 1.73040 -0.49904
-3.11140 2.78040 -0.84904
-3.04140 1.66040 -0.28904
-3.03140 3.24040 -0.95904
-2.98140 1.97040 -0.42904
-2.97140 -2.06960 -0.61904
-2.91140 -0.85960 -0.05904
-2.87140 0.44040 -0.00904
-2.86140 0.15040 0.26096
-2.80140 -2.27960 -0.60904
-2.80140 -3.13960 -1.04904
-2.79140 1.67040 -0.37904
-2.79140 -0.76960 0.01096
-2.71140 1.10040 -0.12904
-2.69140 2.32040 -0.74904
-2.67140 -3.05960 -0.92904
-2.63140 -3.59960 -1.22904
-2.61140 -3.59960 -1.14904
-2.49140 -1.18960 -0.25904
-2.48140 -0.33960 0.08096
-2.42140 -2.51960 -0.79904
-2.41140 -2.52960 -0.82904
-2.40140 3.42040 -1.13904
-2.37140 3.54040 -1.30904
-2.37140 2.11040 -0.55904
-2.29140 -1.70960 -0.42904
-2.25140 -0.21960 0.19096
-2.23140 1.18040 -0.19904
-2.20140 2.62040 -0.74904
-2.20140 3.63040 -1.13904
-2.20140 2.75040 -0.81904
-2.15140 -0.56960 0.20096
-2.14140 1.55040 -0.50904
-2.09140 1.45040 -0.26904
-2.08140 -2.59960 -0.73904
-1.96140 -1.26960 -0.15904
-1.95140 0.26040 0.03096
-1.95140 -3.64960 -1.16904
-1.92140 -1.02960 -0.19904
-1.92140 -0.00960 0.24096
-1.87140 0.61040 0.02096
-1.84140 -3.55960 -1.17904
-1.81140 -2.45960 -0.74904
-1.81140 1.50040 -0.36904
-1.76140 2.13040 -0.67904
-1.65140 -1.69960 -0.47904
-1.62140 3.84040 -1.30904
-1.60140 2.94040 -0.93904
-1.59140 -0.88960 -0.19904
-1.52140 -3.07960 -1.06904
-1.49140 -2.68960 -0.82904
-1.49140 1.59040 -0.36904
-1.41140 0.69040 -0.05904
-1.39140 3.34040 -1.25904
-1.38140 2.28040 -0.63904
-1.36140 -0.75960 0.01096
-1.35140 -1.88960 -0.47904
-1.32140 3.12040 -0.89904
-1.28140 2.46040 -0.70904
-1.21140 0.93040 -0.04904
-1.20140 -3.12960 -0.98904
-1.17140 1.36040 -0.44904
-1.15140 -0.74960 0.04096
-1.14140 -1.75960 -0.41904
-1.04140 0.13040 0.23096
-1.03140 0.08040 0.12096
-1.02140 3.90040 -1.39904
-0.99140 -0.17960 0.23096
-0.93140 -1.19960 -0.23904
-0.84140 1.33040 -0.33904
-0.83140 -2.20960 -0.66904
-0.82140 -2.65960 -0.64904
-0.82140 1.95040 -0.67904
-0.78140 2.46040 -0.73904
-0.74140 3.33040 -1.06904
-0.71140 -1.42960 -0.36904
-0.63140 1.08040 -0.11904
-0.63140 -3.62960 -1.27904
-0.60140 0.21040 0.25096
-0.55140 1.79040 -0.43904
-0.54140 -2.84960 -0.91904
-0.48140 -1.28960 -0.23904
-0.44140 2.60040 -0.69904
-0.41140 3.14040 -1.07904
-0.40140 -2.06960 -0.48904
-0.40140 3.89040 -1.26904
-0.36140 2.30040 -0.65904
-0.32140 0.42040 0.14096
-0.32140 -2.25960 -0.52904
-0.31140 -3.66960 -1.19904
-0.22140 3.66040 -1.15904
-0.20140 -0.36960 0.15096
-0.18140 1.16040 -0.38904
-0.17140 -0.94960 0.11096
-0.09140 -0.09960 0.09096
-0.04140 -0.33960 0.14096
-0.04140 3.73040 -1.36904
0.00860 -2.71960 -0.86904
0.02860 1.98040 -0.56904
0.06860 -1.37960 -0.21904
0.11860 1.76040 -0.54904
0.11860 2.81040 -0.86904
0.15860 1.16040 -0.21904
0.17860 -2.83960 -0.74904
0.17860 -1.97960 -0.57904
0.20860 -0.26960 0.22096
0.23860 0.56040 0.11096
0.27860 1.31040 -0.25904
0.38860 -3.00960 -0.93904
0.39860 -1.81960 -0.44904
0.44860 2.09040 -0.48904
0.51860 -2.75960 -0.75904
0.53860 -2.24960 -0.55904
0.54860 3.71040 -1.36904
0.54860 -0.09960 0.17096
0.57860 2.95040 -1.01904
0.57860 2.13040 -0.60904
0.61860 3.17040 -1.00904
0.63860 -0.88960 -0.04904
0.78860 0.97040 -0.33904
0.82860 -1.11960 -0.08904
0.82860 -0.28960 0.18096
0.83860 -3.22960 -1.02904
0.84860 1.50040 -0.42904
0.89860 -0.49960 0.10096
0.94860 3.55040 -1.24904
0.99860 2.29040 -0.69904
1.01860 3.69040 -1.21904
1.03860 -0.76960 -0.05904
1.04860 -1.53960 -0.28904
1.05860 1.58040 -0.55904
1.06860 -2.51960 -0.75904
1.10860 0.83040 -0.05904
1.10860 0.04040 0.20096
1.13860 0.99040 -0.12904
1.16860 -3.02960 -0.86904
1.28860 -2.35960 -0.67904
1.32860 -3.17960 -0.97904
1.32860 1.57040 -0.33904
1.34860 -3.25960 -0.90904
1.38860 3.46040 -1.17904
1.44860 -0.65960 -0.04904
1.45860 2.68040 -0.86904
1.48860 -2.42960 -0.64904
1.48860 3.53040 -1.39904
1.48860 -1.40960 -0.28904
1.49860 1.97040 -0.61904
1.56860 2.76040 -1.03904
1.65860 1.02040 -0.20904
1.67860 -3.73960 -1.23904
1.74860 0.78040 -0.20904
1.75860 -0.45960 0.19096
1.82860 -1.30960 -0.13904
1.83860 -0.66960 0.07096
1.85860 1.77040 -0.52904
1.86860 -1.26960 -0.15904
1.90860 3.17040 -1.00904
1.92860 3.38040 -1.15904
1.93860 0.35040 0.11096
1.95860 -3.06960 -0.99904
1.97860 1.39040 -0.36904
1.99860 -0.48960 0.12096
2.03860 -1.70960 -0.40904
2.11860 0.82040 -0.12904
2.12860 3.78040 -1.27904
2.15860 -3.21960 -0.84904
2.16860 -2.88960 -0.80904
2.17860 -3.75960 -1.01904
2.19860 1.06040 -0.15904
2.19860 2.98040 -1.03904
2.25860 -3.33960 -1.01904
2.29860 2.20040 -0.63904
2.32860 -1.91960 -0.46904
2.34860 -1.20960 -0.24904
2.40860 3.34040 -1.29904
2.41860 1.81040 -0.53904
2.43860 -2.60960 -0.68904
2.47860 0.53040 -0.06904
6.02860 -3.99960 -1.19904
5.71860 -3.99960 -1.23904
6.14860 -3.96960 -1.18904
2.50860 -3.83960 8.04096
2.64860 -3.83960 8.26096
5.08860 -3.82960 -1.17904
5.15860 -3.77960 -1.15904
3.67860 -3.76960 6.90096
6.01860 -3.76960 -1.10904
4.14860 -3.66960 -1.05904
2.66860 -3.62960 8.21096
2.84860 -3.61960 -1.17904
4.15860 -3.58960 -1.11904
3.61860 -3.57960 7.34096
5.58860 -3.53960 4.37096
5.80860 -3.52960 4.32096
3.20860 -3.50960 -1.07904
4.86860 -3.47960 -1.03904
4.82860 -3.43960 5.10096
3.53860 -3.43960 7.56096
3.03860 -3.41960 -0.95904
3.15860 -3.39960 -0.96904
5.92860 -3.39960 -1.11904
6.24860 -3.31960 -1.21904
5.17860 -3.26960 -0.86904
5.26860 -3.14960 -0.85904
4.96860 -3.00960 4.93096
4.31860 -2.96960 -0.77904
4.01860 -2.95960 -0.88904
5.02860 -2.84960 -0.86904
3.37860 -2.78960 -0.79904
4.34860 -2.76960 -0.74904
5.54860 -2.63960 -0.85904
5.61860 -2.47960 5.96096
3.16860 -2.43960 -0.67904
6.03860 -2.38960 -1.08904
4.61860 -2.30960 6.27096
4.13860 -2.29960 -0.63904
3.51860 -2.26960 -0.55904
6.13860 -2.22960 -0.98904
5.02860 -2.21960 -0.66904
5.64860 -2.16960 1.76096
4.65860 -2.09960 -0.47904
4.02860 -2.05960 -0.42904
3.03860 -1.88960 -0.44904
4.81860 -1.85960 -0.56904
4.41860 -1.81960 5.98096
2.68860 -1.76960 -0.33904
3.23860 -1.74960 -0.40904
5.29860 -1.70960 -0.73904
3.80860 -1.68960 -0.24904
5.97860 -1.65960 5.99096
3.76860 -1.55960 -0.30904
2.81860 -1.49960 -0.19904
5.78860 -1.46960 -0.92904
5.08860 -1.45960 5.68096
5.28860 -1.38960 5.12096
5.64860 -1.30960 -0.77904
5.14860 -1.19960 5.49096
5.54860 -1.18960 5.48096
4.43860 -1.17960 -0.31904
4.69860 -1.14960 -0.53904
5.56860 -1.13960 -0.88904
5.77860 -1.11960 -0.82904
2.87860 -1.01960 -0.03904
3.72860 -0.98960 -0.17904
4.59860 -0.97960 -0.44904
4.94860 -0.95960 -0.54904
6.27860 -0.87960 -1.01904
2.77860 -0.82960 0.01096
3.64860 -0.80960 -0.13904
4.30860 -0.67960 5.80096
4.70860 -0.67960 5.95096
3.60860 -0.65960 -0.08904
2.70860 -0.63960 0.07096
6.05860 -0.57960 8.26096
4.87860 -0.55960 -0.48904
4.11860 -0.44960 -0.22904
5.55860 -0.35960 8.52096
5.13860 -0.33960 7.31096
5.37860 -0.33960 -0.74904
6.25860 -0.20960 13.24096
2.76860 -0.13960 0.16096
4.73860 -0.05960 5.71096
3.97860 -0.00960 -0.26904
5.07860 0.01040 7.36096
3.27860 0.05040 0.13096
5.73860 0.06040 -0.92904
6.10860 0.15040 -1.00904
5.67860 0.17040 -0.87904
4.48860 0.20040 -0.41904
4.64860 0.21040 7.08096
4.72860 0.23040 -0.53904
5.16860 0.27040 7.56096
5.09860 0.31040 -0.65904
3.72860 0.40040 -0.17904
4.08860 0.48040 -0.20904
6.37860 0.49040 -1.12904
6.34860 0.50040 -1.10904
3.08860 0.53040 -0.04904
2.73860 0.59040 -0.17904
3.09860 0.65040 -0.09904
5.78860 0.69040 -0.95904
4.81860 0.70040 -0.50904
3.60860 0.74040 -0.13904
4.81860 0.85040 -0.58904
6.44860 0.90040 13.65096
3.86860 1.02040 -0.35904
5.49860 1.02040 -0.72904
5.47860 1.05040 -0.77904
5.89860 1.11040 3.32096
6.15860 1.17040 -1.11904
2.92860 1.21040 -0.44904
3.97860 1.22040 -0.32904
2.72860 1.26040 -0.31904
5.21860 1.32040 -0.73904
5.84860 1.35040 8.32096
5.16860 1.41040 8.29096
4.26860 1.48040 -0.34904
4.66860 1.52040 -0.40904
6.18860 1.55040 8.16096
4.57860 1.62040 -0.38904
3.33860 1.65040 -0.43904
5.96860 1.67040 14.46096
5.63860 1.69040 -0.85904
3.12860 1.72040 -0.40904
5.27860 1.77040 8.09096
5.95860 1.83040 14.44096
6.34860 1.86040 -1.14904
5.52860 1.99040 -0.85904
3.84860 2.01040 -0.63904
5.27860 2.11040 8.77096
3.67860 2.14040 -0.62904
4.53860 2.18040 -0.85904
4.75860 2.22040 -0.79904
6.23860 2.25040 3.66096
3.54860 2.37040 -0.94904
5.50860 2.39040 -0.82904
3.02860 2.49040 -0.78904
2.54860 2.57040 -0.98904
6.16860 2.61040 -1.15904
5.59860 2.64040 3.44096
2.79860 2.65040 -0.79904
6.38860 2.68040 -1.08904
6.20860 2.69040 -1.09904
5.85860 2.70040 -0.94904
3.87860 2.74040 -0.86904
5.21860 2.78040 -0.98904
6.49860 2.84040 13.66096
4.87860 2.87040 -1.08904
4.66860 2.88040 -0.97904
2.90860 3.21040 -1.08904
3.00860 3.26040 -1.09904
3.33860 3.16040 -1.18904
3.84860 3.35040 -1.13904
3.89860 3.04040 -1.04904
4.28860 2.97040 -1.13904
4.56860 3.66040 -1.38904
4.68860 3.52040 -4.70904
5.39860 3.18040 -1.10904
5.49860 3.21040 -1.08904
5.74860 3.66040 -1.46904
6.39860 3.44040 -1.28904
6.53860 3.40040 13.91096
