-3.91066 3.68523 -0.13234
-3.44066 3.97523 -0.09234
-3.37066 1.92523 -0.14234
-3.34066 1.21523 -0.23234
-3.31066 2.42523 -0.04234
-3.25066 -0.45477 -0.18234
-3.25066 2.98523 -0.02234
-3.20066 2.40523 -0.04234
-3.17066 3.68523 0.05766
-3.13066 -0.89477 -0.14234
-3.13066 3.08523 0.05766
-3.12066 1.63523 -0.03234
-3.04066 -1.95477 -0.08234
-3.02066 3.16523 0.06766
-2.93066 0.70523 -0.03234
-2.93066 4.23523 -0.05234
-2.87066 2.95523 0.06766
-2.83066 -1.41477 -0.08234
-2.81066 1.49523 0.24766
-2.76066 -1.13477 -0.00234
-2.75066 4.02523 -0.08234
-2.74066 -1.78477 -0.15234
-2.73066 0.45523 0.19766
-2.70066 0.34523 0.06766
-2.64066 -3.27477 -0.10234
-2.64066 0.04523 0.03766
-2.63066 4.54523 -0.15234
-2.61066 -2.40477 -0.07234
-2.61066 0.81523 0.07766
-2.56066 -3.38477 -0.15234
-2.55066 -4.79477 -0.13234
-2.50066 -4.22477 -0.11234
-2.47066 -1.37477 -0.00234
-2.46066 -5.37477 -0.30234
-2.43066 3.75523 0.00766
-2.42066 0.69523 0.06766
-2.39066 -0.51477 0.08766
-2.38066 -2.23477 -0.02234
-2.31066 1.70523 0.46766
-2.28066 2.20523 0.54766
-2.28066 1.90523 0.61766
-2.24066 -0.68477 0.11766
-2.22066 2.74523 0.28766
-2.21066 2.55523 0.34766
-2.21066 -3.98477 0.02766
-2.18066 -3.81477 -0.03234
-2.17066 3.49523 0.18766
-2.17066 -2.47477 0.07766
-2.17066 -6.51477 -0.16234
-2.16066 -4.80477 -0.07234
-2.12066 2.63523 0.47766
-2.09066 -1.10477 0.19766
-2.08066 -3.68477 0.00766
-2.08066 1.39523 0.39766
-2.04066 3.72523 0.23766
-1.97066 -4.79477 -0.01234
-1.96066 4.48523 0.00766
-1.94066 -2.94477 0.00766
-1.90066 -5.73477 -0.00234
-1.90066 -6.00477 -0.06234
-1.89066 0.46523 0.21766
-1.89066 0.95523 0.35766
-1.86066 -0.06477 0.30766
-1.83066 3.48523 0.24766
-1.83066 -1.67477 0.27766
-1.82066 2.74523 0.51766
-1.79066 -1.64477 0.13766
-1.76066 -0.46477 0.25766
-1.73066 -1.98477 0.22766
-1.68066 -5.31477 0.11766
-1.67066 0.13523 0.32766
-1.64066 -3.47477 0.22766
-1.64066 -3.91477 0.10766
-1.62066 -4.73477 0.08766
-1.61066 0.61523 0.31766
-1.60066 4.34523 -0.03234
-1.57066 -6.32477 -0.02234
-1.57066 -2.61477 0.20766
-1.56066 -1.90477 0.14766
-1.49066 0.16523 0.36766
-1.49066 -2.73477 0.26766
-1.43066 1.38523 0.42766
-1.42066 3.54523 0.13766
-1.42066 -5.59477 0.17766
-1.37066 -0.71477 0.32766
-1.30066 1.50523 0.50766
-1.29066 2.02523 0.51766
-1.28066 2.01523 0.56766
-1.28066 -2.99477 0.39766
-1.28066 -4.52477 0.36766
-1.24066 2.11523 0.65766
-1.22066 -0.91477 0.42766
-1.18066 2.52523 0.45766
-1.18066 3.29523 0.39766
-1.18066 3.22523 0.33766
-1.15066 -4.02477 0.30766
-1.14066 -5.03477 0.18766
-1.06066 1.17523 0.53766
-1.06066 -1.31477 0.51766
-1.05066 -3.92477 0.29766
-1.04066 3.95523 0.11766
-0.98066 -0.58477 0.52766
-0.97066 0.41523 0.59766
-0.95066 -5.00477 0.35766
-0.92066 -2.21477 0.50766
-0.91066 2.94523 0.43766
-0.90066 -3.18477 0.34766
-0.88066 -0.97477 0.47766
-0.87066 -5.95477 0.09766
-0.85066 0.22523 0.55766
-0.82066 2.54523 0.58766
-0.81066 -5.82477 0.19766
-0.76066 -1.88477 0.49766
-0.75066 -5.23477 0.26766
-0.73066 -2.19477 0.47766
-0.73066 -4.43477 0.37766
-0.70066 4.36523 -0.01234
-0.65066 -2.41477 0.48766
-0.64066 -0.07477 0.67766
-0.62066 -3.68477 0.53766
-0.62066 -3.24477 0.47766
-0.60066 0.41523 0.65766
-0.58066 4.14523 0.11766
-0.58066 -0.35477 0.62766
-0.55066 0.88523 0.71766
-0.54066 -2.82477 0.58766
-0.53066 4.55523 -0.01234
-0.42066 -5.78477 0.05766
-0.40066 3.31523 0.35766
-0.40066 -3.51477 0.65766
-0.38066 1.50523 0.73766
-0.38066 -5.06477 0.37766
-0.35066 1.59523 0.87766
-0.30066 2.72523 0.58766
-0.29066 1.81523 0.73766
-0.27066 1.29523 0.86766
-0.22066 -1.13477 0.65766
-0.16066 2.29523 0.56766
-0.16066 3.08523 0.94766
-0.14066 -5.24477 0.18766
-0.12066 -4.23477 0.51766
-0.11066 -1.07477 4.28766
-0.06066 3.43523 1.07766
-0.06066 -0.12477 0.85766
-0.03066 0.94523 0.74766
-0.03066 -1.52477 0.74766
-0.02066 -4.15477 0.60766
-0.00066 -1.47477 0.75766
0.00934 2.40523 0.66766
0.00934 -2.75477 0.72766
0.02934 -5.19477 0.22766
0.08934 -5.75477 0.04766
0.12934 -6.15477 -0.06234
0.12934 -3.42477 0.68766
0.12934 4.49523 0.09766
0.16934 -4.96477 0.28766
0.17934 -0.00477 0.81766
0.18934 3.83523 0.25766
0.18934 -1.18477 4.32766
0.19934 2.34523 0.65766
0.25934 -3.75477 0.65766
0.27934 -2.11477 0.78766
0.27934 -2.39477 0.76766
0.27934 -2.94477 0.79766
0.30934 0.37523 0.68766
0.33934 -0.88477 0.81766
0.35934 -3.87477 0.61766
0.36934 -0.27477 0.72766
0.36934 0.22523 0.62766
0.43934 3.94523 0.23766
0.46934 4.36523 0.12766
0.46934 -4.02477 0.70766
0.48934 -3.03477 0.81766
0.48934 1.08523 0.59766
0.49934 -5.59477 0.11766
0.50934 0.96523 0.62766
0.55934 2.21523 0.58766
0.57934 -5.97477 -0.07234
0.59934 3.10523 0.44766
0.67934 1.63523 0.45766
0.72934 1.11523 0.55766
0.75934 -1.33477 0.65766
0.75934 -1.61477 0.67766
0.77934 2.91523 0.47766
0.78934 2.89523 0.43766
0.81934 -0.64477 0.63766
0.83934 -1.98477 0.64766
0.84934 -5.44477 0.10766
0.84934 2.09523 0.43766
0.88934 -4.42477 0.46766
0.88934 -1.27477 4.46766
0.88934 1.87523 0.48766
0.90934 -3.29477 0.73766
0.95934 -1.71477 0.60766
0.96934 0.75523 0.45766
0.97934 -4.35477 0.47766
1.00934 -5.38477 0.24766
1.00934 3.99523 0.29766
1.03934 -5.50477 0.03766
1.06934 3.31523 0.34766
1.09934 -4.26477 0.42766
1.12934 -3.62477 0.61766
1.14934 -0.13477 0.48766
1.15934 -3.47477 0.59766
1.17934 -0.18477 0.39766
1.17934 2.16523 0.29766
1.20934 -1.41477 0.54766
1.24934 -2.57477 0.59766
1.27934 -2.30477 0.47766
1.29934 -4.53477 0.45766
1.33934 0.04523 0.39766
1.33934 0.57523 0.40766
1.34934 -4.06477 0.53766
1.34934 -0.45477 0.32766
1.36934 4.12523 0.17766
1.37934 4.50523 -0.00234
1.38934 1.70523 0.32766
1.38934 0.43523 0.45766
1.44934 3.75523 0.18766
1.44934 4.17523 0.15766
1.47934 -3.21477 0.54766
1.57934 2.92523 0.09766
1.58934 -1.29477 0.43766
1.59934 -2.12477 0.44766
1.64934 1.46523 0.17766
1.66934 2.35523 0.21766
1.66934 -2.49477 0.40766
1.68934 -1.17477 0.37766
1.70934 0.93523 0.23766
1.73934 -1.51477 0.29766
1.74934 2.74523 0.18766
1.75934 1.35523 0.17766
1.77934 -3.81477 0.51766
1.84934 -5.64477 0.03766
1.84934 1.91523 0.08766
1.84934 3.48523 0.10766
1.86934 -4.61477 0.22766
1.90934 2.80523 0.13766
1.92934 -4.76477 0.26766
1.93934 4.17523 0.08766
1.95934 0.57523 0.13766
1.95934 -1.89477 0.32766
1.97934 -5.56477 -0.00234
1.97934 -0.64477 0.24766
1.99934 -4.56477 0.37766
2.02934 -4.00477 0.44766
2.07934 -1.94477 0.32766
2.12934 -3.81477 0.31766
2.14934 -5.04477 0.27766
2.16934 1.98523 0.03766
2.17934 -0.38477 0.17766
2.18934 0.05523 0.16766
2.20934 -2.75477 0.26766
2.21934 1.19523 0.08766
2.98934 -5.54477 -0.00234
2.76934 -5.27477 0.01766
3.76934 -5.06477 -0.04234
3.53934 -4.87477 -0.00234
2.88934 -4.81477 0.17766
2.98934 -4.75477 0.10766
2.89934 -4.53477 0.22766
3.26934 -4.42477 0.01766
2.66934 -4.35477 0.30766
2.31934 -4.25477 0.39766
3.11934 -3.99477 0.02766
3.45934 -3.58477 -0.14234
3.33934 -3.50477 0.01766
2.46934 -3.40477 0.25766
3.27934 -3.13477 -0.01234
2.50934 -2.99477 0.25766
3.15934 -2.93477 -0.03234
3.27934 -2.69477 -0.03234
2.43934 -2.63477 0.22766
2.27934 -2.49477 0.14766
2.94934 -2.47477 0.09766
2.93934 -2.07477 -0.02234
2.69934 -1.70477 0.01766
2.56934 -1.70477 0.10766
2.53934 -1.46477 0.13766
2.80934 -1.15477 0.03766
2.33934 -0.64477 0.16766
3.12934 -0.62477 -0.10234
3.02934 -0.45477 -0.07234
2.29934 -0.13477 0.14766
2.25934 -0.09477 0.20766
2.94934 0.38523 -0.10234
2.69934 0.75523 -0.08234
2.64934 0.81523 -0.04234
2.60934 1.28523 -0.08234
2.54934 1.82523 0.01766
2.36934 2.40523 -4.89234
2.56934 2.73523 -0.16234
2.42934 3.57523 -0.14234
2.25934 3.59523 0.00766
2.41934 3.99523 -0.11234
-1.62066 5.81523 -3.15234
-1.53066 4.75523 -0.18234
-1.13066 6.26523 -3.12234
-1.08066 5.73523 -3.15234
-1.05066 7.11523 -3.18234
-1.00066 6.04523 -3.10234
-0.85066 7.07523 -3.17234
-0.75066 5.00523 -0.15234
-0.71066 5.27523 -2.99234
-0.69066 4.95523 -0.25234
-0.65066 6.82523 -3.09234
-0.46066 7.46523 -3.25234
-0.32066 7.26523 -3.31234
-0.17066 6.59523 -3.00234
-0.13066 6.06523 -2.84234
0.01934 5.83523 -3.09234
0.10934 5.23523 -0.18234
0.15934 5.26523 -0.18234
0.15934 6.87523 -3.16234
0.16934 7.48523 -3.28234
0.22934 6.31523 -2.90234
0.33934 4.73523 -0.17234
0.43934 4.66523 -0.05234
0.44934 6.93523 -3.20234
0.69934 7.05523 -3.32234
0.70934 6.07523 -2.87234
0.78934 7.03523 -3.17234
0.83934 5.87523 -2.94234
1.01934 5.62523 -3.16234
1.02934 4.70523 0.02766
1.07934 5.80523 -2.99234
1.16934 5.06523 -0.08234
1.16934 6.68523 -3.21234
1.16934 7.28523 -3.04234
1.35934 6.39523 -3.14234
2.11934 5.12523 -6.79234
2.16934 4.87523 -0.18234
2.20934 5.18523 -0.14234
