-0.78702 -4.42846 -0.53375
-0.18702 -4.21846 -0.39375
-4.52702 0.75154 -1.52375
-4.33702 0.53154 -1.18375
-4.18702 0.10154 -2.98375
-4.10702 0.48154 -0.48375
-4.00702 0.21154 -0.39375
-3.89702 0.33154 -0.36375
-3.78702 0.63154 -0.18375
-3.61702 1.19154 -0.43375
-3.61702 0.87154 -0.36375
-3.44702 0.55154 -0.19375
-3.42702 -0.06846 0.01625
-3.38702 -0.16846 -0.29375
-3.34702 -0.74846 -0.34375
-3.33702 -0.00846 -0.23375
-3.29702 1.00154 -2.22375
-3.27702 1.28154 -0.40375
-3.27702 -0.96846 -0.31375
-3.23702 -0.96846 -0.35375
-3.18702 -0.19846 -0.11375
-3.16702 0.74154 -0.20375
-3.05702 -1.31846 -0.34375
-2.99702 0.90154 -0.13375
-2.89702 1.68154 -0.79375
-2.89702 -0.56846 -0.13375
-2.81702 1.84154 -0.50375
-2.76702 -0.33846 -0.09375
-2.76702 -0.52846 -0.16375
-2.69702 0.95154 -0.02375
-2.69702 0.38154 0.18625
-2.69702 0.17154 0.21625
-2.65702 -1.33846 -0.19375
-2.62702 1.16154 -0.17375
-2.54702 -0.11846 0.10625
-2.50702 -0.79846 0.16625
-2.48702 1.57154 -0.24375
-2.42702 -2.14846 -0.32375
-2.37702 1.41154 -0.15375
-2.37702 0.90154 0.19625
-2.36702 -1.71846 -0.21375
-2.35702 0.53154 0.27625
-2.31702 -1.53846 -0.22375
-2.29702 -0.86846 0.06625
-2.27702 1.54154 -0.19375
-2.25702 1.02154 0.01625
-2.22702 -2.39846 -0.32375
-2.19702 -0.68846 -0.03375
-2.14702 -1.22846 -0.03375
-2.13702 -0.89846 -0.06375
-2.13702 -1.01846 -0.02375
-2.11702 0.61154 0.27625
-2.06702 0.46154 0.30625
-2.03702 -1.70846 -0.16375
-1.84702 2.52154 -0.46375
-1.83702 2.31154 -2.82375
-1.83702 -0.50846 0.35625
-1.79702 1.09154 0.18625
-1.75702 1.25154 0.13625
-1.72702 -3.04846 -0.36375
-1.70702 2.55154 -0.49375
-1.70702 0.15154 0.61625
-1.70702 -0.85846 0.17625
-1.69702 -2.11846 -0.07375
-1.68702 2.10154 -0.14375
-1.67702 -0.76846 0.25625
-1.63702 -1.01846 0.10625
-1.62702 2.28154 -0.25375
-1.62702 0.14154 0.39625
-1.59702 -1.50846 0.20625
-1.58702 -2.79846 -0.34375
-1.55702 0.90154 0.32625
-1.55702 2.27154 -0.30375
-1.55702 1.45154 0.06625
-1.54702 0.28154 0.67625
-1.52702 -1.26846 0.06625
-1.49702 -3.44846 -2.92375
-1.46702 -3.02846 -0.38375
-1.42702 -2.06846 -0.01375
-1.42702 -1.53846 0.15625
-1.40702 -3.48846 -0.50375
-1.39702 0.85154 0.41625
-1.39702 2.13154 -0.19375
-1.35702 -3.34846 -0.57375
-1.34702 -3.69846 -0.51375
-1.29702 0.33154 0.65625
-1.26702 2.84154 -1.26375
-1.23702 0.95154 0.46625
-1.23702 -1.77846 0.01625
-1.23702 2.73154 -0.34375
-1.22702 0.77154 0.55625
-1.16702 2.89154 -1.86375
-1.13702 2.23154 -0.09375
-1.13702 0.61154 0.79625
-1.08702 2.51154 -0.05375
-1.07702 -1.34846 0.22625
-1.05702 -1.47846 0.19625
-1.03702 -2.67846 -0.06375
-1.02702 -0.24846 0.74625
-1.01702 -2.51846 0.00625
-1.01702 -3.77846 -0.27375
-0.99702 1.92154 0.18625
-0.96702 0.18154 0.82625
-0.95702 -1.18846 0.57625
-0.93702 -0.07846 0.83625
-0.93702 -1.28846 0.35625
-0.91702 -1.62846 0.15625
-0.89702 1.84154 0.10625
-0.87702 2.84154 -0.26375
-0.84702 2.67154 -0.12375
-0.81702 -2.42846 0.10625
-0.81702 -1.41846 0.36625
-0.80702 -3.67846 -0.43375
-0.79702 -3.84846 -0.37375
-0.72702 0.67154 0.85625
-0.71702 -3.44846 -0.11375
-0.69702 2.50154 -0.04375
-0.67702 -2.22846 0.34625
-0.65702 0.45154 0.89625
-0.63702 1.56154 0.36625
-0.62702 0.24154 0.95625
-0.57702 0.70154 0.77625
-0.56702 1.89154 0.25625
-0.56702 1.84154 0.42625
-0.55702 3.67154 -0.40375
-0.53702 -3.30846 -0.09375
-0.53702 -0.10846 0.78625
-0.53702 -2.20846 0.33625
-0.51702 -1.68846 0.29625
-0.48702 -1.14846 0.59625
-0.38702 -0.34846 0.89625
-0.37702 -3.29846 0.02625
-0.35702 -0.63846 0.90625
-0.34702 1.55154 0.53625
-0.34702 -2.90846 0.15625
-0.33702 2.53154 0.03625
-0.32702 -1.97846 0.29625
-0.31702 -0.44846 0.90625
-0.30702 3.68154 -2.98375
-0.29702 2.07154 0.32625
-0.26702 1.84154 0.38625
-0.26702 -3.94846 -0.21375
-0.25702 -4.00846 -0.35375
-0.24702 2.33154 0.15625
-0.19702 -2.79846 0.15625
-0.18702 0.36154 1.05625
-0.17702 0.55154 0.90625
0.08298 -4.08846 -0.36375
0.61298 -3.54846 -0.33375
0.64298 -3.48846 -0.30375
0.38298 -3.35846 -0.04375
0.44298 -3.18846 0.07625
1.26298 -3.14846 -0.38375
1.47298 -3.10846 -0.40375
0.13298 -2.93846 0.02625
0.21298 -2.91846 0.19625
0.29298 -2.86846 0.08625
1.26298 -2.80846 -0.13375
0.96298 -2.78846 0.00625
0.83298 -2.71846 0.04625
0.68298 -2.47846 0.17625
1.89298 -2.44846 -0.27375
0.63298 -2.39846 0.15625
0.28298 -2.34846 0.35625
2.09298 -2.34846 -0.22375
0.88298 -2.23846 0.06625
2.06298 -2.12846 -0.22375
2.41298 -2.11846 -0.16375
0.05298 -2.07846 0.48625
1.92298 -2.03846 -0.00375
-0.13702 -2.02846 0.40625
2.48298 -1.99846 -0.33375
0.01298 -1.98846 0.49625
1.05298 -1.93846 0.26625
-0.10702 -1.84846 0.67625
2.89298 -1.79846 -0.39375
1.38298 -1.77846 0.14625
0.04298 -1.74846 0.60625
1.80298 -1.69846 0.09625
1.71298 -1.68846 0.21625
1.29298 -1.67846 0.34625
2.60298 -1.59846 -0.06375
1.78298 -1.59846 0.11625
2.85298 -1.58846 -0.16375
0.27298 -1.55846 0.61625
1.11298 -1.52846 0.56625
3.41298 -1.50846 -0.39375
0.67298 -1.39846 0.63625
2.05298 -1.37846 0.21625
0.98298 -1.22846 0.73625
2.23298 -1.17846 0.20625
3.85298 -1.16846 -0.35375
1.90298 -1.13846 0.42625
4.02298 -1.09846 -0.38375
2.72298 -1.06846 0.10625
1.03298 -1.05846 0.67625
0.31298 -1.03846 1.02625
0.49298 -1.01846 0.89625
3.52298 -0.94846 -0.33375
2.62298 -0.84846 0.20625
4.18298 -0.83846 -0.32375
3.95298 -0.82846 -0.16375
0.28298 -0.79846 1.06625
1.58298 -0.74846 0.63625
2.52298 -0.74846 0.10625
1.21298 -0.70846 0.69625
1.21298 -0.67846 0.86625
3.16298 -0.63846 -0.05375
3.25298 -0.61846 0.07625
1.54298 -0.55846 0.63625
4.51298 -0.54846 -0.58375
3.05298 -0.52846 0.02625
2.15298 -0.44846 0.30625
3.28298 -0.41846 0.07625
0.24298 -0.41846 1.05625
1.90298 -0.41846 0.33625
4.13298 -0.35846 -0.19375
0.54298 -0.35846 1.04625
0.96298 -0.34846 0.97625
3.40298 -0.32846 -0.09375
4.34298 -0.31846 -0.48375
4.27298 -0.29846 -0.20375
0.54298 -0.25846 1.12625
1.13298 -0.25846 0.66625
1.78298 -0.18846 0.47625
2.51298 -0.16846 0.28625
2.30298 -0.10846 0.36625
3.20298 -0.08846 -0.21375
0.11298 -0.06846 1.03625
2.62298 -0.01846 0.20625
0.31298 -0.00846 0.70625
3.51298 0.02154 -0.09375
0.36298 0.03154 1.10625
3.71298 0.04154 -0.17375
-0.05702 0.10154 1.06625
2.08298 0.11154 0.21625
1.18298 0.11154 0.72625
2.21298 0.13154 0.13625
1.07298 0.22154 0.51625
1.80298 0.26154 0.35625
3.71298 0.27154 -0.51375
0.96298 0.33154 0.58625
3.61298 0.34154 -0.44375
0.05298 0.35154 1.00625
1.97298 0.37154 0.27625
3.13298 0.40154 -0.07375
2.89298 0.41154 -0.00375
0.92298 0.48154 0.55625
1.07298 0.70154 0.52625
1.32298 0.77154 0.37625
1.39298 0.77154 0.33625
2.53298 0.78154 0.06625
2.24298 0.82154 0.15625
0.23298 0.88154 0.54625
2.85298 0.96154 -0.41375
2.76298 1.00154 -0.28375
1.96298 1.13154 0.09625
0.34298 1.14154 0.61625
0.07298 1.14154 0.72625
0.66298 1.17154 0.52625
2.51298 1.19154 -0.15375
1.60298 1.22154 0.28625
2.83298 1.23154 -0.44375
1.49298 1.40154 0.15625
0.56298 1.41154 0.37625
1.80298 1.43154 -0.14375
1.35298 1.52154 0.25625
0.00298 1.57154 0.65625
0.49298 1.61154 0.47625
0.95298 1.62154 0.43625
0.77298 1.63154 0.21625
1.98298 1.64154 -0.33375
1.91298 1.67154 -0.11375
2.38298 1.77154 -0.30375
2.47298 1.80154 -0.36375
2.55298 1.87154 -3.08375
0.76298 1.89154 0.37625
1.27298 1.99154 0.09625
0.31298 2.02154 0.50625
1.61298 2.02154 -0.26375
0.49298 2.23154 0.15625
0.13298 2.23154 0.38625
0.18298 2.24154 0.37625
1.11298 2.33154 -0.22375
1.04298 2.34154 -0.08375
1.99298 2.37154 -0.75375
1.99298 2.40154 -0.34375
1.62298 2.44154 -0.37375
2.05298 2.56154 -0.39375
1.26298 2.85154 -0.16375
1.39298 2.97154 -0.24375
0.18298 3.01154 0.01625
1.19298 3.01154 -0.35375
0.25298 3.01154 -0.03375
0.79298 3.09154 -0.23375
1.53298 3.22154 -0.40375
0.53298 3.28154 -0.10375
0.71298 3.37154 -0.10375
1.15298 3.42154 -0.39375
0.53298 3.42154 -0.02375
0.11298 3.64154 -0.28375
-0.11702 3.66154 -0.39375
0.36298 3.66154 -0.30375
-0.02702 3.72154 -2.80375
0.11298 3.72154 -0.30375
-0.07702 3.75154 -0.40375
0.87298 3.88154 -0.36375
0.81298 3.93154 -0.24375
0.14298 4.20154 -0.47375
0.32298 4.17154 -1.07375
0.42298 4.18154 -2.43375
0.63298 4.22154 -0.33375
