6.13057 4.82748 -0.13793
3.09057 -3.23252 0.12207
-5.88943 -4.69252 -2.50793
1.26057 -3.23252 0.28207
-4.33943 -3.78252 -0.06793
-4.54943 -4.28252 -0.00793
-5.38943 -4.25252 -2.35793
-0.19943 -3.87252 0.10207
-6.34943 -4.06252 -2.65793
-2.32943 -4.15252 0.13207
-1.29943 -3.88252 0.17207
-5.71943 -3.99252 -2.46793
-3.32943 -3.98252 0.27207
-6.75943 -3.78252 -2.85793
-2.25943 -3.70252 0.28207
-1.14943 -3.71252 0.21207
-6.95943 -3.64252 -6.07793
-4.21943 -3.34252 0.05207
-2.11943 -3.56252 0.35207
-3.22943 -3.52252 0.34207
-5.43943 -3.42252 -2.30793
2.26057 -3.40252 0.12207
-3.07943 -3.40252 0.44207
-4.05943 -3.20252 0.05207
1.72057 -0.56252 1.27207
3.74057 -3.03252 0.23207
1.24057 -1.96252 0.76207
6.82057 -2.71252 0.12207
-6.45943 -3.21252 -2.69793
2.10057 -3.05252 0.31207
4.69057 -3.19252 0.12207
-5.32943 -3.06252 -2.15793
0.26057 -3.07252 0.40207
1.85057 -2.72252 0.44207
1.11057 -2.87252 0.47207
2.80057 -2.87252 0.32207
-0.72943 -2.90252 0.48207
-1.71943 -2.74252 0.67207
-6.33943 -2.86252 -2.57793
-5.13943 -2.84252 -2.19793
5.99057 -2.81252 0.02207
-0.04943 -2.40252 0.68207
-2.71943 -2.56252 0.67207
6.80057 -2.03252 0.16207
5.03057 -2.64252 0.19207
0.11057 -2.69252 0.59207
-6.12943 -2.64252 -2.57793
-7.10943 -2.45252 -2.86793
5.83057 -2.55252 0.30207
0.90057 -2.56252 0.54207
4.08057 -2.46252 0.27207
-0.88943 -2.51252 0.64207
2.86057 -2.05252 0.67207
-0.98943 -2.25252 0.79207
4.84057 -2.38252 0.36207
3.14057 -2.30252 0.43207
-3.73943 -2.35252 0.22207
-1.87943 -2.33252 0.83207
-1.93943 -2.09252 0.90207
3.85057 -2.22252 0.59207
2.19057 -2.12252 0.52207
-4.75943 -2.15252 -0.09793
-2.88943 -2.13252 0.62207
5.86057 -1.89252 0.47207
2.08057 -1.26252 1.02207
-5.14943 -0.56252 -0.24793
-3.88943 -1.70252 0.22207
-2.91943 -1.89252 0.58207
-3.91943 -1.93252 0.22207
-4.94943 -1.72252 -0.17793
0.29057 -1.79252 0.85207
1.87057 -1.88252 0.79207
0.89057 -1.72252 0.91207
-5.86943 -1.78252 -2.36793
4.92057 -1.73252 0.63207
5.70057 -1.27252 0.58207
-0.09943 -1.55252 1.06207
-0.65943 -1.62252 0.98207
3.97057 -1.58252 0.80207
-6.88943 -1.58252 -2.68793
-1.09943 -1.39252 1.21207
-6.09943 -1.44252 -2.43793
-4.86943 -1.49252 -0.24793
3.03057 -1.42252 0.89207
-1.61943 -1.44252 1.15207
6.67057 -1.44252 0.17207
-3.11943 -0.98252 0.57207
7.18057 -1.18252 -0.02793
3.22057 -0.57252 1.26207
-2.59943 -1.25252 0.81207
-2.09943 -1.19252 1.00207
-7.12943 -1.24252 -2.72793
6.19057 -1.03252 0.31207
-5.93943 -1.14252 -2.34793
-3.57943 -1.06252 0.38207
1.14057 -1.11252 1.18207
4.71057 -1.10252 0.85207
-5.69943 -0.59252 -2.29793
-4.58943 -0.86252 -0.07793
-6.90943 -0.94252 -2.70793
5.20057 -0.88252 0.68207
0.18057 -0.94252 1.27207
3.71057 -0.92252 1.03207
-4.12943 -0.77252 0.17207
-0.76943 -0.79252 1.41207
-1.71943 -0.61252 1.31207
4.22057 -0.74252 1.11207
2.72057 -0.74252 1.20207
-0.10943 0.75748 1.07207
-7.26943 0.00748 -2.74793
6.10057 -0.37252 0.28207
-0.11943 2.17748 0.43207
6.56057 -0.44252 0.21207
0.72057 -0.38252 1.40207
7.04057 -0.51252 -0.06793
-6.68943 -0.39252 -2.61793
-2.70943 -0.40252 0.78207
2.23057 -0.40252 1.43207
5.63057 -0.28252 0.58207
-0.27943 -0.20252 1.51207
-1.29943 -0.00252 1.31207
1.23057 -0.23252 1.48207
5.16057 -0.23252 0.64207
0.23057 -0.04252 1.40207
-3.67943 -0.19252 0.38207
-6.25943 -0.19252 -2.45793
4.23057 -0.10252 1.09207
4.69057 -0.12252 0.91207
-5.72943 0.36748 -2.23793
-0.78943 0.15748 1.18207
-3.83943 0.75748 0.41207
3.75057 0.03748 1.24207
-4.65943 0.00748 -0.02793
3.29057 0.03748 1.46207
2.34057 0.20748 1.45207
-2.31943 0.19748 1.04207
-1.79943 0.34748 1.01207
2.80057 0.20748 1.54207
6.94057 0.29748 -0.09793
4.01057 0.72748 1.16207
-2.80943 0.53748 0.84207
1.84057 0.38748 1.46207
5.97057 0.43748 0.32207
1.37057 0.39748 1.27207
-3.35943 0.39748 0.60207
0.87057 0.56748 1.24207
-6.71943 0.56748 -2.58793
-4.38943 0.60748 0.20207
0.40057 0.58748 1.08207
4.99057 0.58748 0.73207
-7.13943 2.15748 -2.61793
-5.43943 0.81748 -0.35793
5.29057 1.33748 0.61207
-0.55943 0.76748 1.01207
-1.07943 0.93748 0.94207
3.02057 0.90748 1.18207
6.59057 0.99748 0.09207
-1.52943 0.94748 0.80207
-4.85943 0.96748 0.01207
-5.97943 1.33748 -2.21793
5.64057 1.13748 0.42207
2.01057 1.09748 1.05207
-2.49943 1.13748 0.67207
-6.58943 1.09748 -2.44793
-2.05943 1.11748 0.78207
-3.46943 1.31748 0.52207
4.70057 1.27748 0.82207
6.27057 1.16748 0.19207
-3.02943 1.29748 0.72207
1.01057 1.28748 0.95207
-7.61943 1.29748 -2.87793
-5.42943 1.72748 -0.18793
4.31057 1.50748 0.93207
4.94057 2.13748 0.66207
-4.01943 1.48748 0.40207
3.76057 1.43748 1.02207
0.00057 1.48748 0.70207
3.31057 1.68748 1.01207
-6.99943 1.55748 -2.61793
-4.44943 1.51748 0.15207
-5.00943 1.68748 0.09207
2.79057 1.61748 0.87207
-0.99943 1.67748 0.58207
2.29057 1.87748 0.85207
-2.00943 1.86748 0.45207
1.82057 1.80748 0.71207
6.90057 1.84748 -0.22793
1.28057 2.07748 0.69207
0.85057 1.98748 0.55207
-6.12943 1.95748 -2.23793
-6.50943 2.07748 -2.37793
5.93057 1.98748 0.28207
-3.00943 2.05748 0.29207
-1.08943 2.36748 0.24207
4.43057 4.34748 -0.21793
-2.09943 3.49748 -0.15793
1.93057 2.70748 0.41207
6.42057 2.21748 0.03207
0.27057 2.26748 0.50207
3.93057 2.32748 0.63207
-4.01943 2.26748 0.06207
6.66057 2.31748 -5.82793
-7.49943 2.29748 -2.72793
2.93057 2.51748 0.46207
5.51057 2.36748 0.45207
-0.74943 2.45748 0.37207
-5.01943 2.45748 0.02207
5.25057 2.67748 0.45207
4.56057 2.53748 0.72207
6.19057 2.53748 0.07207
-1.75943 2.64748 0.27207
-2.05943 2.54748 0.14207
1.69057 3.07748 0.29207
-2.77943 2.84748 0.04207
4.31057 2.84748 0.44207
3.61057 2.71748 0.54207
-3.02943 2.73748 0.06207
3.35057 3.03748 0.33207
2.65057 2.89748 0.37207
-3.77943 3.02748 -0.08793
0.92057 2.90748 0.23207
-4.00943 2.92748 -0.06793
-0.24943 3.43748 -0.04793
-4.80943 3.22748 -0.29793
-0.08943 3.09748 0.09207
2.39057 3.21748 0.21207
-4.97943 3.10748 -0.10793
0.72057 3.25748 0.19207
1.42057 3.40748 -0.02793
5.93057 3.39748 0.17207
-1.09943 3.29748 -0.08793
3.92057 3.76748 0.08207
4.93057 3.56748 0.25207
1.89057 4.15748 -0.17793
6.66057 3.70748 -5.82793
0.46057 3.59748 -0.13793
-1.19943 3.61748 -0.12793
3.99057 4.14748 -0.05793
6.01057 3.76748 0.19207
6.66057 3.83748 -5.81793
-0.49943 3.77748 -0.23793
5.01057 3.95748 0.10207
2.91057 3.96748 -0.06793
6.36057 3.97748 -0.05793
2.98057 4.33748 -0.23793
5.40057 4.15748 -0.04793
