1.12467 -8.46834 -6.39099
1.02467 -8.44834 -7.24099
-0.12533 -8.26834 -6.61099
1.40467 -8.18834 0.59901
0.61467 -8.13834 0.68901
1.42467 -8.01834 -5.03099
0.38467 -8.00834 0.70901
0.43467 -7.98834 0.84901
-1.51533 -7.94834 -7.46099
1.26467 -7.88834 -4.67099
-0.63533 -7.82834 0.81901
-1.51533 -7.78834 0.56901
0.72467 -7.77834 0.88901
0.77467 -7.76834 0.95901
0.66467 -7.73834 0.94901
1.19467 -7.68834 0.83901
-1.70533 -7.62834 0.66901
1.39467 -7.53834 -4.88099
-2.12533 -7.53834 0.77901
1.36467 -7.49834 0.55901
-0.45533 -7.48834 0.79901
-2.65533 -7.47834 0.89901
-0.03533 -7.46834 0.85901
1.00467 -7.44834 0.79901
-2.74533 -7.43834 0.65901
1.39467 -7.35834 0.76901
-0.49533 -7.27834 0.97901
-3.03533 -7.26834 0.72901
-2.41533 -7.24834 0.63901
-3.79533 -7.24834 0.60901
-1.30533 -7.23834 0.78901
-0.18533 -7.21834 0.97901
0.37467 -7.16834 0.88901
1.69467 -7.11834 -7.50099
-0.12533 -7.11834 1.31901
1.63467 -7.08834 -4.09099
1.52467 -7.08834 -3.80099
-0.14533 -7.06834 1.18901
0.99467 -7.02834 0.75901
-2.51533 -7.02834 0.88901
-0.63533 -6.99834 1.17901
-4.06533 -6.98834 0.50901
-3.77533 -6.98834 0.60901
-4.63533 -6.97834 0.57901
-2.95533 -6.90834 0.83901
0.94467 -6.87834 0.94901
0.57467 -6.87834 0.91901
-5.09533 -6.85834 -5.11099
-1.51533 -6.83834 0.85901
1.68467 -6.81834 -2.04099
-3.76533 -6.79834 0.76901
-1.71533 -6.76834 0.99901
1.47467 -6.75834 -3.73099
-3.58533 -6.75834 1.01901
-0.14533 -6.73834 1.41901
1.33467 -6.69834 0.72901
-5.77533 -6.68834 0.63901
-1.08533 -6.67834 0.95901
-5.97533 -6.67834 -5.21099
-5.91533 -6.67834 -5.21099
-3.36533 -6.66834 0.93901
-0.24533 -6.66834 1.17901
-4.13533 -6.59834 0.94901
-4.98533 -6.57834 0.90901
-1.40533 -6.57834 1.20901
-2.77533 -6.55834 0.90901
-1.01533 -6.45834 1.09901
0.02467 -6.43834 1.19901
1.35467 -6.43834 0.61901
-1.50533 -6.41834 1.07901
-4.99533 -6.39834 0.77901
-5.93533 -6.38834 -5.59099
-5.69533 -6.37834 0.66901
-4.61533 -6.36834 0.68901
-3.81533 -6.35834 0.93901
-1.10533 -6.35834 1.12901
-5.68533 -6.33834 0.57901
-3.80533 -6.26834 0.81901
-2.72533 -6.18834 1.18901
-2.58533 -6.17834 1.03901
-1.97533 -6.13834 0.95901
-4.88533 -6.13834 0.82901
-1.19533 -6.11834 1.31901
-4.28533 -6.10834 1.13901
0.71467 -6.09834 1.11901
1.20467 -6.05834 0.97901
-5.43533 -6.04834 -4.67099
-4.53533 -6.03834 1.02901
0.45467 -6.00834 1.16901
1.43467 -5.98834 0.82901
-5.18533 -5.96834 0.86901
-3.95533 -5.94834 1.16901
-5.84533 -5.90834 0.49901
1.67467 -5.88834 -3.59099
-0.89533 -5.87834 1.35901
-2.35533 -5.84834 1.19901
0.59467 -5.83834 1.09901
-1.80533 -5.83834 1.35901
2.02467 -5.82834 -7.49099
0.44467 -5.81834 1.11901
-5.46533 -5.73834 0.67901
-5.34533 -5.66834 -3.76099
-2.02533 -5.66834 1.32901
-5.28533 -5.65834 0.72901
-0.54533 -5.64834 1.40901
-1.06533 -5.63834 1.27901
-5.11533 -5.62834 0.70901
1.74467 -5.62834 0.68901
-4.63533 -5.62834 0.88901
-5.72533 -5.58834 -7.25099
-2.88533 -5.57834 1.07901
-3.64533 -5.53834 1.02901
2.13467 -5.50834 0.61901
2.15467 -5.49834 0.45901
1.50467 -5.48834 0.92901
1.96467 -5.48834 -4.94099
0.27467 -5.47834 1.21901
-2.27533 -5.45834 1.48901
-1.61533 -5.44834 1.26901
0.58467 -5.42834 1.10901
-0.37533 -5.41834 1.36901
-1.79533 -5.33834 1.39901
1.19467 -5.33834 0.90901
-0.45533 -5.30834 1.45901
-5.56533 -5.27834 0.56901
-2.66533 -5.25834 1.15901
-0.58533 -5.23834 1.48901
-0.19533 -5.21834 1.47901
-2.65533 -5.19834 1.42901
0.20467 -5.16834 1.17901
2.09467 -5.16834 -4.67099
-3.24533 -5.15834 1.54901
2.14467 -5.07834 -5.81099
-3.67533 -5.07834 1.30901
-3.77533 -5.04834 0.98901
-5.14533 -5.03834 -3.53099
-1.87533 -5.01834 1.46901
-1.83533 -5.00834 1.44901
1.46467 -5.00834 0.88901
1.80467 -4.99834 0.80901
-5.73533 -4.98834 -7.08099
-0.79533 -4.98834 1.42901
-2.97533 -4.95834 1.32901
-5.55533 -4.95834 0.41901
-4.66533 -4.94834 0.77901
1.25467 -4.92834 1.16901
-0.65533 -4.89834 1.43901
-4.81533 -4.85834 0.80901
1.98467 -4.84834 0.85901
-3.32533 -4.83834 1.37901
0.39467 -4.81834 1.19901
1.23467 -4.80834 0.98901
-1.82533 -4.78834 1.50901
0.62467 -4.78834 1.08901
-3.07533 -4.78834 1.43901
-2.71533 -4.77834 1.56901
2.20467 -4.77834 0.67901
1.75467 -4.77834 0.86901
-1.47533 -4.72834 1.65901
2.20467 -4.72834 -4.32099
-5.06533 -4.60834 -2.84099
-1.34533 -4.60834 1.82901
-5.54533 -4.59834 -6.02099
-1.01533 -4.59834 1.63901
-2.87533 -4.56834 1.30901
-0.59533 -4.56834 1.29901
-3.51533 -4.54834 1.34901
-4.65533 -4.53834 0.78901
-4.26533 -4.40834 1.13901
-2.76533 -4.37834 1.29901
0.32467 -4.35834 1.33901
-1.81533 -4.34834 1.46901
-3.97533 -4.33834 0.95901
-1.58533 -4.31834 1.61901
0.54467 -4.30834 1.04901
-3.54533 -4.29834 1.03901
-4.35533 -4.23834 1.13901
1.62467 -4.21834 1.05901
-4.03533 -4.21834 0.82901
0.89467 -4.16834 1.15901
1.39467 -4.15834 0.91901
2.35467 -4.15834 -5.80099
0.92467 -4.14834 1.03901
-2.49533 -4.13834 1.41901
-0.73533 -4.11834 1.65901
-5.09533 -4.09834 0.55901
0.30467 -4.09834 1.14901
-3.11533 -4.06834 1.09901
-5.26533 -4.02834 -7.04099
-1.86533 -3.94834 1.58901
2.59467 -3.92834 0.59901
-4.35533 -3.91834 1.34901
2.47467 -3.90834 0.62901
-2.32533 -3.87834 1.67901
-4.32533 -3.84834 1.34901
-2.44533 -3.81834 1.36901
2.37467 -3.81834 -6.06099
1.62467 -3.76834 0.99901
-0.65533 -3.75834 1.79901
-5.03533 -3.73834 -7.11099
-3.67533 -3.72834 0.99901
-4.48533 -3.71834 1.35901
2.44467 -3.68834 -6.00099
-5.31533 -3.67834 0.51901
0.71467 -3.65834 1.16901
-5.29533 -3.64834 0.72901
-0.30533 -3.62834 1.60901
0.63467 -3.59834 1.28901
-3.50533 -3.55834 1.06901
0.61467 -3.53834 1.33901
0.14467 -3.53834 1.43901
-1.77533 -3.50834 1.57901
2.47467 -3.50834 0.69901
-5.02533 -3.50834 0.56901
2.52467 -3.47834 0.76901
-4.67533 -3.46834 -6.02099
-0.21533 -3.45834 1.55901
-0.34533 -3.42834 1.60901
2.00467 -3.40834 0.89901
-0.56533 -3.40834 1.63901
-3.30533 -3.33834 0.99901
1.47467 -3.32834 0.95901
2.40467 -3.32834 -3.76099
1.58467 -3.28834 1.04901
-2.78533 -3.27834 1.21901
-1.41533 -3.22834 1.50901
-1.55533 -3.21834 1.83901
0.86467 -3.21834 1.35901
1.58467 -3.21834 0.99901
0.49467 -3.15834 1.25901
-3.30533 -3.13834 1.53901
-4.57533 -3.09834 0.68901
-0.22533 -3.05834 1.49901
1.82467 -3.04834 0.77901
-2.46533 -3.03834 1.38901
-4.96533 -3.01834 -6.87099
-0.34533 -3.00834 1.48901
-4.50533 -2.97834 0.69901
1.75467 -2.97834 0.83901
-0.51533 -2.96834 1.43901
-4.54533 -2.94834 -3.22099
-0.21533 -2.91834 1.44901
-0.65533 -2.90834 1.69901
1.59467 -2.89834 1.04901
-2.79533 -2.89834 1.33901
-4.17533 -2.82834 0.76901
-1.28533 -2.81834 1.62901
-3.58533 -2.81834 0.97901
-1.50533 -2.81834 1.95901
0.59467 -2.78834 1.30901
-1.55533 -2.77834 1.48901
-2.38533 -2.73834 1.38901
-1.47533 -2.69834 1.94901
2.32467 -2.62834 0.80901
-4.70533 -2.60834 0.54901
-3.68533 -2.60834 0.84901
0.42467 -2.57834 1.61901
-0.58533 -2.57834 1.66901
-2.82533 -2.55834 1.41901
1.62467 -2.54834 1.08901
-2.65533 -2.52834 1.07901
0.69467 -2.51834 1.35901
-1.14533 -2.48834 1.67901
1.04467 -2.43834 1.15901
-4.39533 -2.35834 0.76901
0.64467 -2.31834 1.41901
-3.79533 -2.31834 0.91901
-3.71533 -2.31834 0.94901
-1.90533 -2.30834 1.27901
-1.01533 -2.30834 1.74901
-4.17533 -2.29834 0.72901
2.41467 -2.28834 0.73901
-1.55533 -2.24834 1.42901
-2.28533 -2.23834 1.25901
-3.25533 -2.21834 1.20901
-2.25533 -2.20834 1.27901
-4.31533 -2.15834 -2.68099
-4.81533 -2.07834 0.61901
2.44467 -2.07834 0.76901
-3.18533 -2.03834 1.04901
1.37467 -2.02834 1.14901
-4.80533 -2.02834 -6.62099
-1.99533 -2.00834 1.31901
2.64467 -3.67834 0.55901
4.35467 -3.53834 -7.44099
4.17467 -3.52834 -7.60099
4.37467 -3.45834 -4.36099
3.70467 -3.39834 -4.40099
4.20467 -3.27834 -7.63099
2.72467 -3.23834 -4.04099
2.70467 -3.21834 0.87901
4.62467 -3.18834 -4.38099
2.94467 -3.17834 0.45901
3.55467 -3.16834 -3.99099
4.05467 -3.13834 -4.10099
4.40467 -2.99834 -4.06099
3.42467 -2.96834 -4.09099
2.73467 -2.84834 -2.81099
3.57467 -2.82834 -3.98099
2.80467 -2.52834 -2.80099
4.71467 -2.51834 -4.30099
3.24467 -2.51834 -3.88099
4.24467 -2.46834 -3.98099
2.89467 -2.24834 -3.08099
3.14467 -2.20834 0.66901
4.74467 -2.11834 -4.20099
4.65467 -2.07834 -4.36099
-2.49533 -1.94834 1.55901
-4.60533 -1.92834 0.50901
-0.67533 -1.90834 1.86901
2.50467 -1.86834 1.05901
0.51467 -1.85834 1.44901
-0.19533 -1.82834 1.80901
-4.29533 -1.81834 -4.03099
0.25467 -1.81834 1.56901
2.73467 -1.77834 0.78901
-4.50533 -1.75834 0.57901
-4.10533 -1.73834 0.76901
-0.31533 -1.72834 1.81901
2.57467 -1.69834 0.96901
1.49467 -1.68834 1.20901
-1.90533 -1.66834 1.43901
-3.32533 -1.63834 1.06901
-4.43533 -1.61834 -6.45099
1.55467 -1.60834 1.22901
-2.40533 -1.60834 1.35901
3.21467 -1.60834 0.59901
2.34467 -1.58834 0.97901
0.50467 -1.51834 1.45901
-2.85533 -1.50834 1.04901
-3.23533 -1.49834 1.09901
2.83467 -1.49834 0.65901
3.30467 -1.44834 -3.58099
0.44467 -1.43834 1.45901
2.21467 -1.43834 0.90901
1.56467 -1.38834 1.13901
-0.48533 -1.34834 1.65901
-1.68533 -1.31834 1.54901
1.70467 -1.31834 1.27901
2.61467 -1.28834 0.95901
1.20467 -1.24834 1.06901
-1.18533 -1.20834 1.71901
-0.53533 -1.19834 1.90901
-0.57533 -1.17834 1.70901
-4.06533 -1.16834 -3.38099
-4.53533 -1.15834 -6.57099
1.91467 -1.15834 1.01901
-3.58533 -1.15834 0.82901
-1.59533 -1.13834 1.34901
3.14467 -1.13834 0.63901
2.53467 -1.12834 0.91901
2.61467 -1.11834 0.92901
0.50467 -1.10834 1.45901
0.24467 -1.09834 1.54901
-4.30533 -1.08834 0.53901
-1.18533 -1.08834 1.56901
1.46467 -1.02834 1.31901
-3.71533 -1.01834 0.74901
-2.84533 -1.01834 0.99901
3.21467 -0.96834 -2.94099
1.52467 -0.95834 1.09901
-2.66533 -0.92834 1.15901
-3.34533 -0.91834 0.86901
-0.78533 -0.90834 1.65901
-0.67533 -0.90834 1.73901
0.64467 -0.90834 1.44901
1.40467 -0.88834 1.08901
-0.49533 -0.83834 1.80901
-4.28533 -0.76834 0.53901
-2.01533 -0.72834 1.28901
-2.69533 -0.72834 1.15901
-3.76533 -0.71834 0.75901
1.66467 -0.70834 1.33901
0.70467 -0.70834 1.69901
0.24467 -0.69834 1.53901
-1.90533 -0.65834 1.23901
-1.98533 -0.65834 1.40901
-1.59533 -0.57834 1.42901
1.11467 -0.53834 1.30901
2.17467 -0.51834 1.05901
-1.47533 -0.51834 1.34901
-0.98533 -0.46834 1.63901
-3.01533 -0.42834 0.90901
1.41467 -0.41834 1.40901
-3.29533 -0.40834 0.90901
3.23467 -0.39834 0.74901
-1.33533 -0.37834 1.35901
-3.74533 -0.37834 0.68901
-3.81533 -0.34834 -5.72099
-2.16533 -0.34834 1.42901
2.75467 -0.34834 1.00901
0.34467 -0.33834 1.74901
0.74467 -0.33834 1.51901
-4.24533 -0.24834 0.53901
-2.87533 -0.22834 1.01901
-0.25533 -0.21834 1.76901
-2.29533 -0.18834 1.18901
-4.12533 -0.17834 0.46901
0.73467 -0.14834 1.58901
-3.71533 -0.13834 0.77901
-2.60533 -0.00834 1.03901
-3.72533 0.01166 -6.48099
-0.23533 0.01166 1.80901
-3.77533 0.06166 -5.04099
0.31467 0.08166 1.58901
1.21467 0.09166 1.42901
-3.60533 0.09166 0.78901
-2.20533 0.14166 1.21901
-2.39533 0.15166 0.96901
2.81467 0.22166 0.75901
2.41467 0.23166 0.96901
0.31467 0.28166 1.75901
-0.07533 0.29166 1.69901
3.20467 0.29166 0.72901
-0.72533 0.30166 1.69901
-3.76533 0.30166 0.91901
1.85467 0.35166 1.25901
1.87467 0.37166 1.35901
-3.19533 0.41166 1.00901
-3.83533 0.42166 -6.79099
-0.20533 0.43166 1.87901
2.20467 0.47166 0.99901
-1.27533 0.50166 1.35901
0.89467 0.54166 1.69901
3.16467 0.55166 0.84901
-3.63533 0.58166 0.74901
3.08467 0.58166 0.75901
-3.03533 0.60166 0.75901
1.24467 0.63166 1.34901
3.01467 0.64166 1.01901
0.29467 0.66166 1.63901
2.33467 0.69166 1.49901
-0.54533 0.71166 1.52901
-0.13533 0.72166 1.72901
-1.22533 0.75166 1.51901
1.94467 0.77166 1.25901
2.62467 0.78166 1.04901
2.67467 0.79166 0.99901
0.26467 0.80166 1.68901
-3.27533 0.81166 0.73901
1.61467 0.85166 1.27901
-0.71533 0.87166 1.51901
3.17467 0.87166 0.79901
-1.72533 0.88166 1.29901
-1.01533 0.90166 1.38901
-1.23533 0.93166 1.36901
-0.95533 0.94166 1.50901
0.76467 0.97166 1.59901
1.48467 1.00166 1.30901
-0.83533 1.03166 1.35901
0.93467 1.06166 1.49901
-3.90533 1.10166 0.49901
-2.33533 1.14166 1.05901
-0.58533 1.18166 1.47901
-0.46533 1.19166 1.54901
2.08467 1.21166 1.27901
0.30467 1.21166 1.60901
-2.28533 1.22166 1.09901
2.89467 1.25166 0.98901
2.04467 1.26166 1.22901
-1.93533 1.27166 1.01901
1.27467 1.33166 1.54901
-3.42533 1.35166 0.76901
-1.46533 1.36166 1.16901
-1.68533 1.41166 1.57901
-1.89533 1.42166 1.30901
2.77467 1.45166 0.97901
-1.72533 1.46166 1.25901
-2.73533 1.47166 0.91901
-0.98533 1.47166 1.35901
1.72467 1.48166 1.34901
2.21467 1.49166 1.24901
-3.00533 1.49166 0.76901
0.79467 1.49166 1.47901
-2.28533 1.52166 0.93901
-3.17533 1.55166 -3.35099
3.01467 1.57166 0.99901
-1.89533 1.63166 1.02901
-1.44533 1.67166 1.09901
-3.07533 1.68166 0.78901
-3.74533 1.76166 -6.60099
-2.29533 1.76166 0.91901
0.01467 1.76166 1.65901
1.13467 1.79166 1.65901
-3.17533 1.89166 -3.85099
-2.77533 1.94166 1.15901
-3.33533 1.95166 0.51901
0.93467 1.96166 1.62901
1.95467 1.96166 1.13901
-3.78533 1.97166 -7.16099
0.19467 1.98166 1.63901
-2.34533 1.99166 1.02901
-2.72533 2.02166 0.77901
-3.43533 2.02166 -6.48099
-3.70533 2.02166 0.27901
-3.15533 2.04166 -6.46099
-3.61533 2.04166 0.43901
1.30467 2.06166 1.44901
1.99467 2.06166 1.36901
-0.03533 2.12166 1.61901
0.81467 2.17166 1.65901
-2.33533 2.19166 0.96901
2.20467 2.19166 1.25901
2.88467 2.22166 0.96901
-3.31533 2.28166 0.51901
-2.78533 2.29166 0.82901
3.16467 2.33166 1.09901
0.22467 2.34166 1.69901
1.91467 2.38166 1.33901
2.40467 2.38166 1.11901
-3.57533 2.40166 0.55901
-1.02533 2.52166 1.16901
1.42467 2.54166 1.49901
0.91467 2.56166 1.65901
2.89467 2.56166 1.02901
-0.81533 2.57166 1.24901
-0.10533 2.58166 1.55901
0.37467 2.64166 1.66901
-3.26533 2.64166 0.66901
1.10467 2.64166 1.69901
1.20467 2.68166 1.71901
2.96467 2.68166 0.93901
-3.19533 2.69166 0.69901
0.44467 2.71166 1.85901
-0.15533 2.77166 1.55901
1.70467 2.77166 1.23901
-0.95533 2.79166 1.24901
-0.64533 2.85166 1.52901
1.83467 2.86166 1.44901
-0.18533 2.89166 1.34901
-0.69533 2.93166 1.32901
0.54467 2.97166 1.66901
2.27467 3.00166 1.34901
2.06467 3.00166 1.39901
-1.29533 3.03166 0.97901
0.68467 3.05166 1.97901
-0.48533 3.13166 1.37901
-1.76533 3.13166 1.12901
2.68467 3.14166 1.24901
-1.82533 3.16166 0.95901
-1.13533 3.17166 1.26901
2.45467 3.18166 1.32901
2.79467 3.23166 1.06901
-0.76533 3.25166 1.30901
-2.38533 3.26166 0.71901
-2.00533 3.26166 1.03901
-0.64533 3.31166 1.42901
0.34467 3.31166 1.62901
-1.48533 3.34166 1.16901
-2.90533 3.35166 0.61901
0.14467 3.36166 1.65901
-2.75533 3.38166 -7.20099
0.58467 3.44166 1.69901
2.96467 3.44166 1.16901
-1.84533 3.46166 1.07901
-2.05533 3.52166 0.93901
-1.95533 3.56166 1.02901
-3.15533 3.62166 -7.47099
-1.19533 3.62166 1.09901
-1.35533 3.64166 1.19901
0.92467 3.70166 1.89901
1.16467 3.71166 1.75901
-2.66533 3.71166 -3.12099
3.11467 3.74166 1.05901
1.73467 3.75166 1.61901
-2.14533 3.75166 0.91901
1.51467 3.76166 1.58901
-2.86533 3.77166 0.71901
-2.89533 3.81166 -7.52099
-2.89533 3.83166 -7.53099
-2.63533 3.85166 -3.18099
-2.35533 3.85166 0.97901
1.95467 3.90166 1.70901
-0.59533 3.96166 1.14901
-3.01533 4.00166 0.65901
2.90467 4.01166 1.22901
-2.58533 4.02166 -2.99099
2.18467 4.05166 1.55901
-0.31533 4.10166 1.36901
-0.87533 4.11166 1.28901
-2.22533 4.14166 0.90901
-2.77533 4.14166 0.55901
1.90467 4.18166 1.45901
-0.07533 4.28166 1.39901
0.15467 4.29166 1.41901
0.82467 4.30166 1.67901
0.58467 4.31166 1.71901
-2.23533 4.34166 0.60901
3.10467 4.34166 1.06901
3.32467 4.35166 1.14901
0.86467 4.38166 1.52901
3.34467 4.38166 1.04901
2.47467 4.41166 1.32901
2.22467 4.43166 1.36901
1.93467 4.54166 1.42901
2.94467 4.54166 1.17901
1.49467 4.58166 1.67901
-1.48533 4.60166 0.93901
-0.21533 4.61166 1.26901
0.97467 4.63166 1.56901
1.30467 4.71166 1.44901
3.13467 4.74166 1.20901
-1.19533 4.75166 1.18901
-0.02533 4.79166 1.41901
0.68467 4.79166 1.33901
0.39467 4.79166 1.43901
-0.28533 4.82166 1.43901
-1.31533 4.84166 0.95901
-0.86533 4.87166 1.07901
-1.09533 4.87166 1.07901
-1.91533 4.87166 0.80901
1.94467 4.94166 1.49901
2.95467 4.94166 1.33901
-0.68533 4.99166 1.16901
2.85467 5.03166 1.24901
-0.58533 5.04166 1.20901
2.22467 5.09166 1.47901
-2.43533 5.09166 0.48901
1.24467 5.14166 1.26901
-2.21533 5.17166 -4.75099
0.67467 5.17166 1.30901
2.11467 5.17166 1.27901
2.57467 5.20166 1.19901
-1.80533 5.21166 0.76901
-2.39533 5.24166 0.59901
-0.89533 5.30166 1.21901
-2.26533 5.31166 -5.42099
-1.13533 5.32166 1.09901
-1.90533 5.33166 0.63901
0.41467 5.37166 1.26901
-0.01533 5.37166 1.35901
-0.56533 5.40166 1.21901
-2.13533 5.44166 0.62901
-2.10533 5.46166 0.72901
-2.43533 5.47166 -7.40099
-1.89533 5.47166 0.82901
2.07467 5.47166 1.23901
1.96467 5.55166 1.11901
1.20467 5.63166 1.27901
1.22467 5.66166 1.13901
-1.89533 5.66166 0.69901
2.48467 5.67166 0.96901
3.03467 5.71166 0.82901
-1.72533 5.76166 0.75901
-2.22533 5.77166 -3.81099
1.25467 5.80166 1.18901
-2.02533 5.85166 0.97901
0.28467 5.85166 1.20901
-2.62533 5.87166 -7.26099
2.02467 5.90166 0.98901
1.58467 5.93166 0.99901
1.22467 5.96166 0.99901
-0.45533 6.02166 1.15901
1.07467 6.09166 1.15901
0.98467 6.10166 0.99901
-1.03533 6.13166 0.93901
2.64467 6.14166 0.82901
0.17467 6.24166 1.08901
0.16467 6.30166 1.13901
-0.05533 6.30166 1.05901
2.94467 6.33166 0.93901
1.38467 6.38166 0.73901
3.32467 6.41166 0.76901
0.37467 6.43166 1.02901
0.32467 6.50166 0.97901
-1.13533 6.52166 0.89901
1.86467 6.53166 0.73901
-0.70533 6.57166 0.97901
0.16467 6.61166 0.86901
0.18467 6.62166 1.08901
2.79467 6.65166 0.83901
0.61467 6.66166 0.83901
-1.35533 6.69166 0.86901
0.84467 6.72166 0.85901
-2.26533 6.77166 0.39901
-1.88533 6.79166 -7.34099
2.51467 6.79166 0.81901
3.17467 6.80166 0.58901
-1.07533 6.85166 0.86901
-0.87533 6.86166 0.99901
-2.07533 6.88166 0.44901
3.07467 6.89166 0.78901
-0.86533 6.90166 0.92901
-0.19533 6.90166 0.83901
0.76467 6.96166 0.83901
2.00467 6.97166 -4.65099
1.28467 7.02166 0.77901
2.26467 7.03166 0.67901
-0.55533 7.03166 0.89901
-0.49533 7.06166 0.87901
2.45467 7.09166 -4.59099
-1.25533 7.10166 0.69901
-0.68533 7.13166 0.90901
-1.88533 7.15166 -6.55099
1.92467 7.16166 -4.07099
2.50467 7.20166 -4.53099
-1.70533 7.23166 -4.96099
0.05467 7.23166 0.85901
2.55467 7.24166 0.65901
3.00467 7.25166 -4.79099
1.72467 7.28166 0.80901
-1.74533 7.30166 0.50901
-0.32533 7.37166 0.83901
2.20467 7.40166 0.54901
2.09467 7.41166 0.45901
-1.88533 7.45166 0.70901
-1.87533 7.47166 0.51901
-1.22533 7.47166 0.57901
-1.66533 7.50166 -3.72099
2.20467 7.51166 0.44901
-1.47533 7.58166 1.04901
1.57467 7.61166 -4.69099
-0.10533 7.61166 0.74901
1.08467 7.62166 -4.54099
0.91467 7.63166 -4.55099
-1.55533 7.64166 0.67901
1.23467 7.64166 0.51901
1.60467 7.65166 0.46901
-2.15533 7.68166 -6.47099
-1.39533 7.70166 0.60901
0.25467 7.75166 -3.99099
1.26467 7.75166 -4.69099
0.55467 7.85166 0.42901
0.69467 7.89166 0.62901
-0.47533 8.05166 0.47901
-1.33533 8.12166 0.51901
-1.50533 8.25166 0.51901
-0.72533 8.29166 -4.59099
-1.40533 8.43166 -7.54099
3.40467 -1.99834 0.22901
4.94467 -1.95834 -4.41099
3.74467 -1.93834 -3.66099
3.67467 -1.86834 0.31901
4.92467 -1.67834 -7.41099
4.43467 -1.62834 -4.16099
4.47467 -1.52834 -4.31099
5.00467 -1.42834 -7.43099
3.84467 -1.42834 -3.87099
3.51467 -1.37834 -3.80099
4.16467 -1.34834 -3.94099
4.54467 -1.10834 -4.15099
4.23467 -1.07834 -4.26099
3.61467 -1.01834 0.44901
4.93467 -0.99834 -7.53099
4.90467 -0.94834 -4.30099
3.34467 -0.70834 -3.66099
3.47467 -0.00834 0.94901
3.50467 0.09166 0.64901
3.57467 0.32166 -6.50099
3.54467 0.36166 -6.47099
3.67467 0.38166 -3.55099
3.63467 0.45166 -2.87099
3.79467 0.55166 0.69901
3.85467 0.59166 0.58901
3.60467 0.61166 -3.12099
3.79467 0.69166 -4.45099
3.59467 0.83166 0.78901
3.82467 0.94166 0.75901
3.83467 1.09166 -6.87099
3.91467 2.03166 0.81901
4.10467 2.05166 -2.49099
4.14467 2.11166 -7.05099
3.40467 2.20166 0.88901
4.17467 2.29166 -3.82099
3.38467 2.31166 1.04901
4.15467 2.31166 -6.55099
4.07467 2.36166 0.61901
4.17467 2.46166 0.78901
3.64467 2.51166 0.71901
4.24467 2.51166 -3.22099
3.71467 2.52166 0.84901
3.41467 2.59166 0.95901
4.21467 2.67166 -5.87099
4.26467 2.74166 -5.62099
3.76467 2.82166 0.82901
4.38467 2.93166 -4.95099
4.04467 3.04166 0.94901
4.54467 3.31166 0.66901
4.56467 3.42166 -3.84099
4.41467 3.71166 0.83901
4.39467 3.71166 1.06901
4.39467 3.80166 0.81901
3.88467 3.84166 0.80901
4.69467 3.87166 0.77901
3.74467 3.93166 0.99901
4.46467 4.07166 0.83901
4.30467 4.13166 0.74901
4.68467 4.18166 -3.74099
3.43467 4.25166 0.90901
4.76467 4.35166 -3.86099
3.88467 4.38166 1.10901
4.16467 4.39166 0.89901
3.78467 4.43166 0.91901
3.48467 4.50166 0.98901
4.30467 4.53166 0.92901
4.69467 4.62166 -3.78099
5.00467 4.92166 -4.91099
3.34467 5.02166 1.02901
4.97467 5.23166 0.62901
4.96467 5.30166 -5.23099
5.10467 5.32166 0.64901
4.90467 5.37166 0.76901
5.09467 5.38166 0.70901
4.10467 5.50166 0.90901
5.11467 5.51166 0.77901
5.21467 5.66166 0.77901
5.09467 5.68166 0.62901
5.14467 5.72166 -5.34099
4.35467 5.80166 0.99901
4.87467 5.81166 0.76901
3.90467 5.89166 0.90901
4.06467 5.94166 0.81901
4.96467 5.98166 0.67901
3.80467 6.06166 1.06901
5.24467 6.06166 -3.54099
4.17467 6.08166 0.86901
3.98467 6.14166 0.97901
4.27467 6.15166 0.80901
4.32467 6.19166 0.80901
4.93467 6.27166 -7.69099
4.96467 6.36166 0.70901
3.95467 6.37166 0.85901
4.84467 6.37166 0.68901
5.36467 6.38166 -7.66099
5.32467 6.39166 -7.51099
3.73467 6.57166 0.77901
4.67467 6.68166 -7.76099
3.44467 6.71166 0.68901
3.37467 6.82166 0.58901
3.96467 7.01166 0.50901
