-3.07813 -5.16182 -5.38138
-3.14813 -4.88182 -5.12138
-3.06813 -4.68182 0.00862
-3.13813 -4.65182 -0.16138
-3.40813 -4.01182 -0.08138
-3.32813 -3.17182 -6.51138
-2.95813 -3.06182 0.25862
-3.53813 -3.05182 -6.43138
-3.16813 -3.02182 -6.22138
-3.43813 -2.75182 -0.03138
-4.14813 -2.71182 -6.63138
-3.63813 -2.67182 -5.97138
-3.84813 -2.66182 -6.61138
-3.16813 -2.65182 0.06862
-3.81813 -2.59182 -0.02138
-3.34813 -2.53182 0.08862
-3.55813 -2.45182 -0.17138
-3.51813 -2.23182 0.14862
-3.84813 -2.23182 0.04862
-3.94813 -2.21182 0.00862
-3.40813 -2.09182 0.22862
-4.19813 -1.86182 -0.16138
-2.97813 -0.91182 0.39862
-3.27813 -0.79182 0.41862
-3.15813 -0.77182 0.46862
-3.41813 -0.70182 0.23862
-4.40813 -0.56182 0.00862
-3.78813 -0.46182 0.20862
-4.51813 -0.46182 -0.02138
-3.39813 -0.39182 0.42862
-3.57813 -0.33182 0.31862
-4.03813 -0.29182 0.23862
-4.15813 -0.20182 0.15862
-3.85813 -0.14182 0.27862
-4.83813 -0.13182 -5.42138
-4.89813 -0.13182 -3.13138
-4.82813 -0.12182 -5.46138
-4.59813 -0.01182 0.01862
-4.26813 0.03818 0.01862
-4.17813 0.03818 0.29862
-4.76813 0.11818 -5.15138
-5.17813 0.14818 -0.12138
-4.93813 0.20818 0.12862
-4.97813 0.42818 -0.17138
-4.93813 0.46818 0.11862
-3.09813 1.04818 0.58862
-3.13813 1.22818 0.63862
-4.18813 1.25818 0.34862
-3.00813 1.40818 0.71862
-3.47813 1.45818 0.67862
-4.22813 1.45818 0.40862
-5.30813 1.48818 -0.06138
-3.75813 1.60818 0.41862
-3.82813 1.64818 0.48862
-5.33813 1.70818 -0.05138
-3.46813 1.70818 0.62862
-5.15813 1.78818 -6.40138
-3.71813 1.79818 0.48862
-3.69813 1.83818 0.67862
-5.12813 1.90818 0.07862
-4.34813 1.93818 0.46862
-4.77813 1.99818 0.19862
-4.56813 2.05818 0.23862
-4.42813 2.19818 0.32862
-4.47813 2.26818 0.52862
-6.09813 2.27818 -0.16138
-5.70813 2.40818 -5.44138
-5.22813 2.42818 0.25862
-6.17813 2.46818 -5.39138
-5.36813 2.49818 -0.04138
-5.16813 2.61818 0.25862
-6.05813 2.62818 -5.19138
-5.21813 2.67818 0.23862
-6.33813 2.69818 -6.18138
-5.84813 2.78818 -5.02138
-6.10813 2.91818 0.09862
-3.04813 2.92818 0.78862
-5.85813 2.97818 -0.14138
-6.21813 2.98818 -0.09138
-6.43813 3.05818 -6.25138
-6.00813 3.11818 0.20862
-4.11813 3.13818 0.66862
-3.06813 3.18818 0.76862
-2.98813 3.21818 0.67862
-3.82813 3.34818 0.41862
-3.00813 3.34818 0.86862
-5.24813 3.36818 0.26862
-3.00813 3.48818 0.62862
-6.73813 3.51818 -0.20138
-4.90813 3.56818 0.27862
-6.34813 3.58818 -0.06138
-3.83813 3.60818 0.39862
-4.30813 3.60818 0.59862
-3.48813 3.65818 0.40862
-3.83813 3.68818 0.41862
-5.98813 3.79818 0.15862
-3.81813 3.84818 0.31862
-5.59813 3.85818 0.45862
-3.75813 3.89818 0.39862
-4.20813 4.06818 0.33862
-4.65813 4.06818 0.26862
-5.12813 4.12818 0.01862
-4.71813 4.17818 0.24862
-5.40813 4.25818 -6.01138
-6.12813 4.30818 -6.24138
-4.49813 4.30818 0.14862
-5.72813 4.32818 -3.51138
-5.14813 4.42818 -5.01138
-5.62813 4.43818 -4.53138
-4.89813 4.43818 0.04862
-5.47813 4.51818 0.05862
-5.57813 4.63818 -0.13138
-5.24813 4.71818 -0.15138
-3.87813 5.09818 0.58862
-3.73813 5.17818 2.12862
-2.99813 5.18818 0.00862
-4.19813 5.19818 -6.30138
-3.90813 5.34818 -2.92138
-3.20813 5.39818 0.23862
-1.90813 -7.84182 -5.35138
-1.54813 -7.81182 -5.30138
-1.16813 -7.77182 -0.01138
-0.97813 -7.66182 -0.07138
-1.69813 -7.58182 0.17862
-1.95813 -7.34182 -0.23138
-1.71813 -7.23182 -0.07138
-0.79813 -7.08182 0.09862
0.47187 -7.07182 -0.09138
-0.54813 -6.89182 0.13862
0.32187 -6.89182 -0.01138
0.80187 -6.87182 0.03862
-1.86813 -6.87182 -0.02138
-1.60813 -6.68182 0.13862
-0.88813 -6.66182 0.29862
-0.02813 -6.62182 0.67862
0.27187 -6.60182 0.17862
0.09187 -6.47182 0.25862
-2.18813 -6.41182 -0.04138
0.34187 -6.40182 0.20862
-0.02813 -6.38182 0.39862
-0.93813 -6.38182 0.40862
-0.88813 -6.14182 0.54862
-2.27813 -6.08182 -0.14138
2.38187 -6.07182 0.32862
-0.74813 -5.97182 0.38862
-0.40813 -5.96182 0.31862
-0.81813 -5.93182 0.46862
3.03187 -5.89182 0.00862
-2.04813 -5.85182 -6.48138
3.41187 -5.83182 -4.17138
2.26187 -5.71182 0.30862
2.00187 -5.70182 0.20862
2.14187 -5.69182 0.29862
2.60187 -5.65182 0.05862
-1.79813 -5.63182 0.63862
2.30187 -5.58182 0.26862
-2.43813 -5.56182 -5.57138
-1.13813 -5.54182 0.32862
-1.52813 -5.54182 0.14862
1.46187 -5.54182 0.50862
3.58187 -5.53182 0.10862
-1.55813 -5.52182 0.31862
0.98187 -5.51182 0.39862
4.15187 -5.51182 -4.17138
-2.22813 -5.50182 -6.12138
4.08187 -5.48182 0.04862
1.57187 -5.46182 0.31862
-0.04813 -5.31182 0.56862
2.34187 -5.29182 0.18862
0.52187 -5.27182 0.45862
1.48187 -5.26182 0.33862
2.88187 -5.26182 0.24862
4.43187 -5.20182 0.19862
-2.60813 -5.19182 0.15862
1.29187 -5.18182 0.54862
-1.83813 -5.16182 0.09862
-2.28813 -5.13182 0.01862
1.55187 -5.12182 0.46862
-1.09813 -5.11182 0.51862
-2.32813 -5.09182 0.00862
-0.51813 -5.08182 0.60862
1.13187 -5.07182 0.45862
1.66187 -5.04182 0.45862
-2.88813 -5.03182 -5.17138
4.47187 -5.00182 0.07862
0.51187 -4.99182 0.86862
-2.21813 -4.88182 0.13862
4.51187 -4.87182 0.15862
-1.60813 -4.85182 0.43862
-0.05813 -4.85182 0.80862
4.05187 -4.83182 0.46862
0.43187 -4.81182 0.63862
-2.54813 -4.76182 -0.00138
0.61187 -4.75182 0.86862
0.80187 -4.67182 0.64862
3.57187 -4.66182 0.54862
0.42187 -4.65182 0.84862
-2.74813 -4.59182 -0.09138
-1.36813 -4.59182 0.47862
-0.80813 -4.57182 0.62862
3.69187 -4.52182 0.43862
-0.39813 -4.47182 0.94862
3.68187 -4.39182 0.46862
-2.69813 -4.33182 -0.01138
3.13187 -4.31182 0.64862
-0.18813 -4.29182 0.90862
-2.10813 -4.29182 0.28862
4.07187 -4.21182 0.57862
2.75187 -4.20182 0.60862
0.02187 -4.19182 0.95862
-0.38813 -4.19182 0.78862
2.93187 -4.06182 0.63862
4.18187 -4.03182 0.40862
3.02187 -4.01182 0.65862
-1.26813 -3.99182 0.80862
4.96187 -3.92182 0.40862
2.84187 -3.90182 0.80862
-0.93813 -3.88182 0.74862
3.14187 -3.84182 0.59862
2.01187 -3.83182 0.93862
-0.68813 -3.80182 0.81862
-1.16813 -3.76182 0.51862
2.13187 -3.72182 1.12862
3.74187 -3.70182 0.51862
1.90187 -3.68182 0.84862
2.09187 -3.65182 0.74862
0.94187 -3.62182 0.84862
2.18187 -3.61182 0.87862
4.14187 -3.59182 0.66862
-2.10813 -3.53182 0.49862
2.55187 -3.48182 0.94862
5.08187 -4.40182 0.31862
5.23187 -4.23182 0.33862
5.32187 -3.62182 0.38862
5.33187 -3.81182 0.41862
5.46187 -3.58182 0.62862
5.76187 -3.52182 0.28862
5.79187 -3.70182 0.36862
6.12187 -4.59182 0.10862
6.16187 -4.13182 0.14862
6.20187 -4.16182 0.32862
6.29187 -4.43182 0.12862
6.33187 -4.46182 -5.29138
6.38187 -4.10182 0.43862
6.51187 -4.13182 0.23862
6.54187 -4.02182 0.08862
6.58187 -4.00182 0.00862
6.91187 -3.65182 -6.07138
-1.68813 -3.46182 0.56862
1.05187 -3.45182 0.87862
-1.37813 -3.42182 0.58862
2.02187 -3.42182 0.98862
-0.10813 -3.42182 0.92862
2.92187 -3.37182 0.90862
-1.95813 -3.33182 0.24862
-0.00813 -3.25182 0.97862
1.29187 -3.24182 0.93862
-1.20813 -3.20182 0.66862
1.19187 -3.18182 1.39862
1.43187 -3.17182 1.01862
1.03187 -3.15182 1.15862
1.69187 -3.14182 1.06862
-2.05813 -3.05182 0.28862
-2.43813 -3.05182 0.38862
-1.10813 -3.02182 0.78862
0.09187 -3.02182 1.17862
-2.29813 -2.99182 0.46862
1.18187 -2.94182 1.24862
0.48187 -2.92182 1.25862
-2.77813 -2.87182 0.16862
-2.22813 -2.78182 0.43862
-1.21813 -2.76182 0.80862
0.67187 -2.70182 1.24862
0.22187 -2.69182 1.11862
0.28187 -2.67182 1.45862
-2.78813 -2.64182 0.21862
-0.82813 -2.64182 0.87862
-2.53813 -2.50182 0.44862
0.40187 -2.49182 1.29862
-2.13813 -2.35182 0.43862
-0.04813 -2.30182 1.13862
-0.57813 -2.25182 0.90862
-0.53813 -2.23182 0.99862
3.31187 -2.10182 0.98862
2.76187 -2.08182 1.11862
-0.35813 -2.07182 1.12862
3.17187 -2.05182 1.13862
3.05187 -2.01182 0.87862
2.71187 -2.00182 1.22862
-0.73813 -1.92182 0.93862
2.77187 -1.89182 1.13862
2.14187 -1.86182 1.24862
2.03187 -1.83182 1.11862
-1.36813 -1.81182 0.70862
-1.39813 -1.75182 0.78862
1.12187 -1.67182 1.48862
3.46187 -1.67182 0.82862
-1.11813 -1.65182 0.94862
1.01187 -1.65182 1.44862
2.49187 -1.63182 1.19862
1.90187 -1.55182 1.41862
-1.44813 -1.52182 0.81862
1.79187 -1.48182 1.32862
0.04187 -1.46182 1.28862
2.26187 -1.45182 1.09862
2.03187 -1.44182 1.29862
2.50187 -1.44182 1.09862
-0.07813 -1.42182 1.25862
-2.18813 -1.34182 0.64862
3.20187 -1.30182 -2.70138
-2.28813 -1.25182 0.67862
-1.06813 -1.24182 1.02862
1.09187 -1.24182 1.58862
-1.87813 -1.23182 0.75862
1.29187 -1.22182 1.32862
1.71187 -1.19182 1.18862
-1.17813 -1.19182 0.96862
-2.12813 -1.15182 0.53862
1.08187 -1.07182 1.45862
-2.20813 -1.00182 0.48862
1.27187 -0.99182 1.47862
-0.21813 -0.99182 1.30862
0.03187 -0.97182 1.30862
-2.30813 -0.93182 0.53862
0.84187 -0.92182 1.67862
-2.64813 -0.81182 0.64862
-2.83813 -0.75182 0.37862
-1.51813 -0.73182 0.93862
0.88187 -0.71182 1.46862
-1.26813 -0.69182 0.92862
0.23187 -0.59182 1.50862
0.55187 -0.58182 1.45862
-2.83813 -0.46182 0.50862
-0.02813 -0.44182 1.51862
-2.54813 -0.42182 0.67862
3.27187 -0.30182 0.69862
0.09187 -0.26182 1.48862
3.26187 -0.18182 0.74862
-0.17813 -0.16182 1.43862
-0.54813 -0.16182 1.26862
2.70187 -0.11182 0.92862
2.98187 -0.05182 0.83862
3.22187 -0.03182 0.64862
3.19187 -0.02182 0.64862
2.23187 0.00818 0.88862
-0.87813 0.02818 1.32862
-0.66813 0.15818 1.35862
2.19187 0.15818 0.91862
1.23187 0.18818 1.23862
-0.86813 0.21818 1.17862
2.31187 0.24818 1.10862
-1.32813 0.25818 0.98862
0.23187 0.37818 1.57862
2.23187 0.40818 1.04862
1.84187 0.40818 1.19862
2.40187 0.44818 0.92862
2.43187 0.44818 0.85862
2.80187 0.48818 0.61862
-1.74813 0.50818 1.11862
0.15187 0.51818 1.46862
-1.42813 0.58818 1.20862
-0.87813 0.59818 1.25862
-1.57813 0.60818 1.02862
1.23187 0.66818 1.09862
1.60187 0.68818 1.03862
-2.12813 0.70818 0.79862
-0.93813 0.74818 1.24862
1.42187 0.75818 1.09862
-1.96813 0.80818 1.01862
0.07187 0.87818 1.58862
0.40187 0.89818 1.40862
1.58187 0.92818 1.20862
-2.59813 0.96818 0.83862
-2.02813 0.97818 0.99862
-2.17813 0.99818 0.99862
-2.29813 1.01818 0.90862
-1.20813 1.12818 1.39862
-2.91813 1.13818 0.48862
-0.84813 1.13818 1.39862
0.72187 1.30818 1.38862
0.47187 1.30818 1.40862
0.79187 1.37818 1.23862
-2.50813 1.38818 0.97862
0.15187 1.39818 1.46862
-2.92813 1.40818 0.77862
-2.15813 1.42818 1.00862
2.96187 1.71818 0.66862
3.22187 1.73818 0.49862
-0.01813 1.74818 1.51862
-0.41813 1.80818 1.40862
2.94187 1.81818 0.48862
-0.02813 1.84818 1.45862
-0.66813 1.87818 1.46862
2.22187 1.91818 0.81862
2.91187 1.92818 0.48862
2.58187 2.07818 0.58862
1.19187 2.11818 0.90862
-0.72813 2.14818 1.42862
2.76187 2.14818 0.48862
3.19187 2.17818 0.43862
2.11187 2.22818 0.84862
-0.74813 2.23818 1.13862
1.55187 2.26818 0.78862
-1.29813 2.29818 1.29862
0.18187 2.29818 1.19862
-1.45813 2.30818 1.22862
1.98187 2.37818 0.86862
2.14187 2.39818 0.78862
1.96187 2.40818 0.64862
0.51187 2.45818 0.93862
-1.39813 2.49818 1.07862
-0.84813 2.49818 1.36862
2.48187 2.59818 0.52862
0.80187 2.61818 1.17862
1.92187 2.62818 0.75862
-0.51813 2.64818 1.18862
-1.50813 2.66818 1.04862
-1.93813 2.70818 1.18862
1.27187 2.71818 0.97862
-2.25813 2.74818 0.98862
-2.13813 2.74818 0.94862
1.26187 2.81818 0.75862
1.40187 2.82818 0.84862
-0.44813 2.84818 1.19862
1.10187 2.86818 0.83862
-1.61813 2.87818 0.93862
-2.11813 2.91818 1.02862
0.06187 3.02818 1.10862
-2.25813 3.07818 0.80862
1.12187 3.08818 0.88862
-1.70813 3.08818 1.22862
-2.70813 3.09818 0.78862
0.42187 3.21818 1.10862
-2.80813 3.28818 0.76862
0.62187 3.30818 1.14862
-1.23813 3.30818 0.81862
0.16187 3.40818 0.99862
0.29187 3.55818 1.06862
-2.52813 3.56818 0.61862
3.31187 3.65818 0.27862
-0.37813 3.66818 0.97862
-0.06813 3.68818 0.91862
3.45187 3.70818 0.06862
2.76187 3.77818 0.39862
-0.66813 3.85818 0.66862
3.06187 3.86818 0.32862
3.45187 3.88818 0.16862
2.43187 3.89818 0.30862
3.36187 3.94818 -0.02138
-0.46813 3.97818 0.90862
1.43187 4.06818 0.68862
-0.77813 4.07818 0.72862
-1.14813 4.07818 0.59862
2.56187 4.09818 0.42862
2.34187 4.11818 0.32862
3.01187 4.21818 0.11862
0.41187 4.25818 0.88862
1.33187 4.29818 0.61862
1.90187 4.30818 0.68862
3.39187 4.30818 -5.40138
2.65187 4.33818 0.19862
-1.52813 4.33818 0.45862
-1.19813 4.38818 0.61862
2.13187 4.39818 0.46862
1.81187 4.43818 0.38862
-1.48813 4.47818 0.61862
-0.70813 4.48818 0.55862
0.27187 4.49818 0.64862
-1.95813 4.52818 0.44862
2.57187 4.54818 0.13862
1.80187 4.55818 0.60862
0.64187 4.64818 0.84862
-1.75813 4.68818 0.54862
-0.80813 4.71818 0.51862
1.38187 4.74818 0.55862
1.06187 4.78818 0.72862
-1.94813 4.79818 0.40862
-2.39813 4.80818 0.23862
1.80187 4.82818 0.45862
-2.19813 4.87818 0.41862
-2.86813 4.90818 0.25862
-0.66813 4.90818 0.51862
2.93187 4.92818 -6.08138
1.18187 4.93818 0.61862
-1.89813 4.95818 0.24862
-2.75813 4.96818 0.21862
1.05187 4.99818 0.71862
0.13187 4.99818 0.53862
-1.95813 5.15818 0.25862
-2.67813 5.19818 0.06862
0.27187 5.23818 0.57862
-2.89813 5.25818 0.16862
1.01187 5.27818 0.46862
-1.17813 5.27818 0.16862
0.35187 5.38818 0.52862
0.31187 5.41818 0.42862
-2.44813 5.53818 0.03862
-0.52813 5.68818 0.40862
0.21187 5.72818 0.47862
-0.33813 5.77818 0.31862
2.64187 5.79818 0.06862
-0.56813 5.90818 0.17862
2.44187 5.91818 0.10862
2.84187 5.91818 -5.33138
1.64187 5.97818 0.40862
-1.63813 6.01818 -5.18138
-2.04813 6.02818 -5.39138
-1.66813 6.04818 -2.74138
-1.28813 6.07818 -0.03138
-1.38813 6.10818 -5.35138
-0.52813 6.12818 0.13862
2.63187 6.14818 -0.02138
-1.04813 6.15818 0.08862
-1.09813 6.18818 -5.43138
0.55187 6.18818 0.23862
2.16187 6.27818 0.22862
2.14187 6.32818 0.21862
1.61187 6.33818 0.23862
-1.40813 6.35818 -0.22138
1.86187 6.37818 0.35862
2.44187 6.39818 0.20862
-0.53813 6.40818 0.05862
1.57187 6.44818 0.33862
0.51187 6.55818 0.05862
0.61187 6.61818 0.31862
1.94187 6.72818 0.18862
1.41187 6.75818 0.25862
1.24187 6.78818 0.20862
0.04187 6.79818 -5.35138
1.65187 6.83818 0.18862
0.78187 6.87818 0.09862
0.16187 6.96818 -5.34138
0.44187 6.97818 -5.27138
0.66187 6.99818 -0.02138
0.45187 7.03818 -2.72138
0.90187 7.04818 -4.25138
0.74187 7.11818 -0.08138
2.29187 7.11818 -6.00138
0.94187 7.22818 -0.19138
1.86187 7.68818 -4.77138
3.53187 -0.61182 0.77862
3.53187 -2.34182 0.94862
3.57187 1.67818 0.30862
3.60187 1.90818 0.22862
3.60187 0.23818 0.40862
3.61187 -2.58182 0.93862
3.64187 3.25818 0.06862
3.64187 3.83818 -5.38138
3.65187 1.47818 0.35862
3.65187 -2.54182 0.90862
3.68187 2.39818 0.15862
3.72187 -0.49182 0.67862
3.79187 1.21818 0.50862
3.85187 1.29818 0.35862
3.98187 0.27818 0.27862
4.01187 -0.47182 0.57862
4.06187 2.75818 -5.88138
4.07187 -2.19182 0.56862
4.13187 -2.58182 0.74862
4.19187 -2.24182 0.84862
4.20187 -0.19182 0.25862
4.21187 1.55818 0.10862
4.29187 -0.37182 0.57862
4.30187 -2.81182 0.68862
4.36187 1.22818 0.26862
4.38187 1.04818 0.28862
4.38187 1.96818 0.00862
4.45187 -3.08182 0.78862
4.50187 1.64818 -4.68138
4.52187 -3.04182 0.92862
4.62187 1.72818 -0.04138
4.66187 0.69818 0.20862
4.67187 -1.89182 0.53862
4.77187 0.76818 0.17862
4.80187 0.01818 0.10862
4.82187 -0.94182 0.39862
4.90187 -1.86182 0.37862
4.94187 -3.05182 0.50862
5.03187 -3.24182 0.60862
5.08187 -1.33182 0.48862
5.09187 -2.36182 0.23862
5.13187 0.60818 0.14862
5.13187 0.12818 -5.60138
5.20187 -1.60182 0.47862
5.20187 0.06818 -0.03138
5.20187 -2.42182 0.51862
5.21187 -1.39182 0.30862
5.21187 -0.36182 -0.06138
5.27187 -0.55182 0.07862
5.46187 -0.42182 -5.39138
5.64187 -1.42182 0.11862
5.87187 -2.12182 0.24862
5.93187 -1.81182 0.22862
6.02187 -1.88182 0.08862
6.06187 -2.04182 -0.12138
6.07187 -2.14182 0.08862
6.11187 -2.55182 -0.02138
6.17187 -1.99182 -5.85138
6.24187 -2.62182 0.46862
6.31187 -2.44182 -5.81138
