-4.26904 2.17365 0.80130
2.12096 -5.95635 0.40130
2.21096 -5.82635 -5.52870
-4.27904 4.12365 -1.62870
-5.76904 3.08365 -5.66870
-4.30904 2.61365 -2.03870
-4.98904 2.06365 -2.56870
-5.13904 3.98365 -1.93870
-5.38904 2.80365 -2.28870
-5.50904 3.82365 -2.28870
-5.18904 2.48365 -5.88870
-4.99904 2.41365 -2.36870
-5.03904 3.82365 -2.02870
-5.04904 4.11365 -1.95870
-5.02904 4.16365 -1.97870
-4.71904 3.49365 -2.11870
-4.78904 4.38365 -4.40870
-4.78904 2.33365 -2.23870
-4.43904 1.66365 0.61130
-4.64904 1.69365 0.17130
-4.64904 4.00365 -1.81870
-4.63904 2.17365 0.53130
-4.59904 1.92365 0.45130
-4.54904 3.65365 -1.99870
-2.97904 5.52365 -1.97870
-3.37904 0.36365 0.42130
-4.19904 2.02365 -6.42870
-3.97904 1.14365 -5.99870
-2.98904 4.67365 -1.76870
-3.01904 2.67365 1.60130
-2.99904 -0.12635 0.26130
-2.85904 1.82365 1.47130
-2.86904 5.61365 -2.00870
-2.93904 5.04365 -1.93870
-4.15904 3.61365 -2.09870
-4.18904 3.81365 -1.69870
-3.71904 1.12365 0.42130
-3.94904 3.92365 -1.72870
-3.96904 0.87365 -5.95870
-3.88904 2.33365 1.12130
-3.80904 5.35365 -1.58870
-3.75904 1.99365 1.08130
-3.39904 3.40365 1.93130
-3.58904 0.68365 0.55130
-3.70904 1.76365 0.96130
-3.58904 3.48365 -1.77870
-3.40904 2.85365 1.73130
-3.54904 1.09365 0.77130
-3.43904 0.64365 -3.79870
-3.45904 5.64365 -5.20870
-2.17904 1.79365 1.74130
-2.81904 0.56365 0.62130
-3.02904 3.38365 2.05130
-3.18904 5.39365 -1.97870
-3.31904 3.35365 1.83130
-3.35904 5.29365 -1.74870
-3.34904 4.86365 -1.64870
-3.19904 0.32365 0.38130
-3.21904 3.65365 -1.53870
-3.21904 1.98365 1.25130
-3.20904 0.58365 0.68130
-2.84904 2.13365 1.49130
-3.12904 3.11365 1.99130
-3.13904 3.93365 -1.60870
-2.85904 3.73365 -1.47870
-3.08904 0.29365 -3.47870
-2.17904 0.38365 1.09130
-2.72904 5.17365 -1.94870
-2.79904 3.65365 1.92130
-2.78904 0.14365 0.61130
-2.76904 -0.02635 -5.76870
-2.76904 1.59365 1.28130
-2.58904 -0.72635 -5.99870
-2.64904 0.51365 1.04130
-2.56904 0.02365 0.79130
-2.52904 2.85365 1.94130
-2.43904 6.50365 -2.19870
-2.48904 0.18365 0.84130
-2.38904 2.19365 1.92130
-2.39904 3.57365 1.81130
-2.35904 3.18365 2.03130
-2.23904 2.54365 2.10130
-2.26904 6.33365 -2.54870
-1.67904 5.00365 -2.14870
-1.88904 -0.00635 0.89130
-2.10904 -0.28635 0.79130
-2.15904 -0.31635 0.60130
-2.14904 5.23365 -2.17870
-2.10904 -0.98635 -3.14870
-1.91904 4.58365 1.21130
-1.95904 1.64365 1.86130
-1.94904 2.02365 1.98130
-1.95904 3.23365 1.72130
-1.85904 -1.55635 0.32130
-1.88904 6.00365 -6.06870
-1.87904 -1.26635 -4.00870
-1.83904 1.94365 1.98130
-1.85904 1.43365 1.73130
-1.74904 -0.06635 1.27130
-1.79904 4.08365 1.34130
-1.81904 -1.27635 0.52130
-1.78904 5.32365 -2.08870
-1.75904 -0.04635 1.17130
-1.41904 2.00365 1.89130
-1.57904 4.23365 0.91130
-1.63904 2.29365 2.02130
-1.65904 5.44365 -2.41870
-1.64904 -1.66635 -3.82870
-1.57904 0.01365 1.23130
-1.55904 -0.62635 0.93130
-1.52904 3.48365 1.23130
-1.49904 3.78365 1.13130
-1.12904 5.17365 0.27130
-1.23904 3.01365 1.53130
-1.37904 -1.80635 0.38130
-1.37904 1.54365 2.07130
-1.18904 -0.45635 1.15130
-1.23904 4.86365 0.64130
-1.16904 5.15365 0.51130
-1.17904 0.18365 1.63130
-1.16904 3.37365 1.35130
-0.74904 -2.61635 -5.82870
-1.10904 1.60365 2.09130
-1.10904 -0.95635 0.88130
-1.09904 5.07365 -2.41870
-1.07904 4.03365 0.99130
-0.94904 1.27365 2.13130
-0.97904 -0.56635 1.10130
-0.97904 1.48365 1.93130
-0.96904 -1.72635 0.81130
-0.75904 3.69365 0.62130
-0.90904 -2.24635 0.38130
-0.92904 1.38365 2.08130
-0.88904 -2.12635 -4.53870
-0.84904 3.46365 1.12130
-0.84904 3.08365 1.18130
-0.76904 1.74365 1.91130
-0.83904 -0.64635 1.52130
-0.79904 -1.47635 0.94130
-0.03904 -1.13635 1.46130
-0.27904 3.31365 0.67130
-0.58904 1.46365 1.70130
-0.70904 -0.23635 1.61130
-0.73904 4.83365 0.42130
-0.64904 1.76365 1.72130
-0.69904 -0.16635 1.70130
-0.29904 -0.61635 1.65130
-0.49904 -1.29635 1.28130
-0.56904 3.17365 0.86130
-0.32904 -1.99635 0.86130
-0.40904 0.91365 2.02130
-0.04904 -1.89635 1.11130
-0.24904 3.49365 0.71130
-0.22904 -3.14635 0.45130
-0.17904 -3.03635 -5.44870
-0.06904 -1.60635 1.16130
-0.14904 -0.00635 2.06130
-0.10904 2.83365 0.91130
-0.12904 -3.31635 0.41130
1.06096 -0.17635 1.64130
0.59096 0.27365 2.05130
0.08096 3.14365 0.52130
0.00096 -2.40635 0.84130
0.01096 -1.20635 1.53130
0.05096 0.75365 2.01130
0.04096 -3.16635 0.68130
0.04096 1.20365 1.62130
0.18096 -1.67635 1.54130
0.12096 3.17365 0.66130
0.11096 2.84365 0.91130
0.12096 1.33365 1.42130
0.16096 1.40365 1.49130
0.15096 1.09365 1.64130
0.16096 -3.61635 -5.98870
0.53096 -4.01635 -5.89870
0.31096 -0.42635 2.19130
0.23096 -0.33635 2.01130
0.28096 2.94365 0.59130
0.23096 0.92365 1.48130
0.51096 -1.95635 1.47130
0.37096 2.55365 0.60130
0.42096 -3.54635 0.71130
1.05096 2.23365 0.61130
0.87096 -4.31635 0.65130
0.69096 -2.18635 1.39130
0.61096 1.59365 1.07130
0.60096 -0.77635 2.11130
0.60096 2.94365 0.57130
0.82096 -2.07635 1.60130
0.70096 -3.74635 0.82130
0.69096 2.59365 -5.93870
0.77096 -3.87635 0.54130
0.97096 0.14365 1.63130
0.91096 0.65365 1.51130
0.89096 -1.70635 1.71130
0.91096 -2.56635 1.27130
0.96096 -4.52635 0.41130
0.92096 2.60365 0.37130
0.95096 -1.79635 1.99130
1.04096 -3.36635 1.17130
1.00096 2.66365 0.46130
0.98096 -2.25635 1.44130
0.99096 -4.15635 -3.28870
1.02096 -3.92635 0.85130
1.55096 2.04365 -5.99870
1.17096 -4.27635 0.56130
1.06096 0.38365 1.26130
1.25096 1.19365 0.76130
1.19096 1.86365 -6.00870
1.18096 -1.86635 1.99130
1.20096 2.14365 -5.63870
1.29096 -5.08635 0.45130
1.27096 0.92365 1.04130
1.28096 -0.48635 1.70130
1.34096 1.92365 0.55130
1.31096 -3.71635 1.07130
1.44096 1.20365 0.85130
1.43096 -4.97635 -5.77870
1.43096 -4.74635 -5.11870
1.50096 -0.33635 1.58130
1.44096 2.40365 0.39130
1.82096 -2.35635 2.06130
1.70096 -4.44635 0.79130
1.56096 -2.62635 1.80130
1.57096 -0.62635 1.64130
1.60096 -4.31635 1.02130
1.65096 -0.94635 1.87130
1.82096 -2.73635 1.69130
1.74096 0.10365 1.27130
1.73096 -2.24635 1.95130
1.73096 -2.37635 1.90130
1.80096 -2.27635 1.88130
2.07096 -4.43635 1.04130
1.98096 -5.16635 0.55130
1.92096 -4.98635 1.01130
1.89096 1.43365 0.35130
1.90096 -0.16635 1.13130
1.96096 -5.47635 0.64130
1.94096 -0.48635 1.45130
2.03096 -2.89635 1.69130
2.02096 1.60365 -5.98870
2.02096 1.60365 0.43130
2.06096 -4.10635 1.36130
2.06096 -3.56635 1.62130
2.18096 1.22365 -5.96870
2.21096 -3.88635 1.49130
2.35096 1.04365 0.28130
2.32096 -5.28635 0.81130
2.27096 1.31365 0.24130
2.34096 -2.04635 1.78130
2.32096 -0.34635 0.98130
2.63096 -5.01635 1.06130
2.39096 -0.62635 1.16130
2.36096 0.74365 0.60130
2.42096 -0.93635 1.27130
2.51096 -5.67635 -1.94870
2.50096 -4.89635 1.26130
2.60096 -3.29635 2.10130
2.59096 -0.44635 1.09130
2.73096 -1.12635 1.43130
2.69096 -2.92635 2.07130
2.69096 1.00365 0.31130
2.72096 -2.83635 2.12130
2.72096 -2.39635 1.87130
2.84096 -5.65635 1.07130
2.75096 -5.68635 -5.65870
2.73096 -0.70635 0.94130
2.74096 -2.89635 2.07130
2.83096 0.65365 -5.92870
2.81096 -0.82635 1.15130
3.09096 -4.05635 1.95130
2.91096 -5.63635 1.09130
2.88096 -1.09635 1.13130
2.90096 -2.56635 1.76130
2.94096 -5.42635 -2.04870
2.95096 -4.60635 1.56130
3.08096 -3.75635 1.99130
3.07096 -5.42635 -5.47870
3.09096 -4.29635 1.83130
3.09096 -3.54635 2.05130
3.43096 -0.98635 0.87130
3.36096 -1.55635 0.97130
3.56096 -1.24635 0.71130
3.50096 -0.77635 0.67130
3.54096 -0.51635 0.55130
3.51096 -3.45635 1.84130
3.59096 -2.20635 1.16130
3.56096 -3.91635 1.93130
3.57096 -3.38635 1.96130
3.88096 -4.76635 1.89130
3.84096 -2.54635 1.31130
3.85096 -1.29635 0.86130
3.84096 -3.07635 1.62130
3.84096 -1.71635 0.95130
3.99096 -4.52635 -3.84870
4.22096 -4.53635 -5.73870
4.11096 -4.48635 2.36130
4.52096 -4.20635 -2.34870
4.29096 -4.22635 -3.59870
4.07096 -4.22635 2.00130
4.09096 -4.17635 2.05130
4.33096 -3.99635 1.64130
4.40096 -3.92635 1.71130
4.26096 -3.93635 1.71130
5.72096 -2.89635 -5.79870
5.62096 -3.11635 -3.12870
4.94096 -3.24635 1.12130
5.90096 -2.92635 -5.86870
5.34096 -2.96635 0.93130
5.95096 -3.01635 1.55130
5.25096 -2.79635 0.52130
4.11096 -2.76635 1.38130
4.93096 -2.68635 0.79130
5.12096 -2.08635 0.48130
4.83096 -2.35635 0.89130
5.14096 -2.41635 -5.24870
4.82096 -2.37635 0.58130
5.24096 -2.34635 0.41130
4.32096 -2.17635 0.80130
4.11096 -1.77635 -6.16870
4.38096 -1.78635 0.45130
4.29096 -1.53635 0.79130
4.09096 -1.02635 0.49130
