-3.89413 -5.89097 -0.40194
-3.66413 -5.65097 -0.14194
-2.87413 -6.19097 -0.44194
-2.27413 -5.46097 -0.35194
-1.01413 -2.46097 0.44806
-6.19413 -2.84097 -0.14194
-6.05413 -2.29097 -0.38194
-5.82413 -1.71097 -0.65194
-5.76413 -3.70097 -0.37194
-5.24413 -2.80097 -0.02194
-5.41413 -3.36097 0.05806
-5.25413 -4.59097 -0.36194
-5.03413 -2.23097 -0.26194
-4.96413 -4.21097 -0.16194
-4.86413 -1.88097 -0.04194
-4.39413 -1.07097 -0.30194
-4.62413 -3.89097 0.01806
-4.42413 -3.32097 0.29806
-4.53413 -1.41097 -0.29194
-4.45413 -5.12097 -0.16194
-4.18413 -4.71097 -0.02194
-4.23413 -2.76097 0.29806
-4.19413 -0.35097 -0.63194
-4.07413 -2.37097 0.38806
-3.83413 -4.41097 0.07806
-3.74413 -1.93097 0.03806
-3.69413 -0.47097 -0.23194
-3.58413 -1.58097 0.09806
-3.61413 -3.84097 0.35806
-2.76413 -2.09097 0.46806
-3.10413 0.01903 -0.38194
-3.39413 -5.22097 0.03806
-3.43413 -3.28097 0.71806
-3.39413 -0.88097 -0.21194
-3.27413 -2.88097 0.61806
-3.23413 0.40903 -0.68194
-2.95413 -2.45097 0.55806
-3.05413 -4.93097 0.07806
-2.89413 -0.96097 0.20806
-2.81413 -4.37097 0.40806
-1.06413 0.07903 0.17806
-1.94413 -2.61097 0.78806
-2.31413 -0.50097 -0.05194
-2.66413 -3.81097 0.44806
-2.59413 -1.40097 0.32806
-2.49413 -3.40097 0.41806
-2.42413 -0.08097 0.00806
-2.29413 0.93903 -0.32194
-2.10413 -1.46097 0.46806
-2.17413 -2.97097 0.44806
-1.51413 -1.02097 0.42806
-1.72413 -3.92097 0.23806
-1.87413 -4.35097 -0.01194
-1.85413 0.60903 -0.27194
-1.80413 -1.92097 0.80806
-1.61413 -0.59097 0.29806
-1.68413 1.56903 -0.37194
-1.39413 -3.50097 0.15806
-1.50413 0.44903 0.10806
-1.15413 -3.16097 0.25806
-1.31413 -1.97097 0.59806
-1.17413 1.36903 -0.12194
0.76587 3.49903 -0.28194
-0.95413 2.22903 -0.51194
-0.90413 1.04903 -0.17194
-0.79413 -1.09097 0.79806
-0.73413 -1.54097 0.50806
-0.71413 -0.05097 0.42806
-0.23413 -2.99097 0.16806
-0.53413 -2.50097 0.26806
-0.61413 -4.03097 -0.22194
-0.41413 1.97903 -0.13194
-0.35413 0.85903 0.24806
-0.36413 2.97903 -0.63194
-0.25413 -0.45097 0.54806
0.04587 -2.07097 0.17806
-0.15413 1.69903 -0.07194
-0.11413 0.52903 0.36806
-0.00413 -1.64097 0.41806
0.07587 -0.55097 0.58806
0.16587 2.73903 -0.09194
0.37587 1.48903 0.23806
0.37587 3.63903 -0.57194
0.41587 2.45903 -0.11194
0.67587 0.00903 0.52806
0.54587 -0.99097 0.42806
0.46587 0.35903 0.72806
0.64587 1.16903 0.38806
2.36587 2.43903 0.35806
1.56587 2.95903 -0.07194
0.80587 -2.15097 0.71806
0.84587 -1.08097 0.22806
0.82587 -2.60097 -0.21194
1.17587 0.99903 0.65806
0.97587 2.22903 0.21806
1.27587 -0.19097 0.48806
1.20587 1.94903 0.22806
1.18587 3.14903 0.00806
1.48587 4.10903 -0.23194
1.32587 -1.52097 0.06806
1.44587 0.63903 0.58806
1.44587 -0.51097 0.30806
1.94587 0.45903 0.31806
1.59587 3.97903 -0.26194
1.78587 1.71903 0.55806
1.75587 4.96903 -7.97194
1.80587 4.87903 -0.58194
1.86587 5.03903 -0.70194
2.29587 3.59903 0.20806
2.07587 -0.74097 0.13806
1.97587 2.65903 0.38806
1.99587 1.42903 0.65806
2.23587 0.10903 0.43806
2.21587 -1.03097 -0.05194
2.76587 0.89903 0.24806
2.60587 5.46903 -0.58194
2.39587 3.44903 0.08806
2.40587 -2.12097 -0.12194
2.59587 1.19903 0.62806
2.72587 -0.06097 0.07806
2.60587 4.38903 -0.06194
2.66587 4.51903 -0.29194
3.17587 2.92903 0.37806
2.77587 2.14903 0.66806
3.15587 1.90903 0.41806
3.04587 5.28903 -0.22194
2.99587 -1.55097 0.11806
3.10587 3.08903 0.40806
3.96587 2.40903 0.23806
3.54587 0.37903 -0.03194
3.38587 0.64903 0.05806
3.42587 4.96903 -0.01194
3.39587 3.89903 0.24806
3.46587 3.98903 0.01806
3.94587 1.36903 0.20806
3.55587 1.61903 0.30806
3.90587 2.56903 0.48806
3.81587 -0.96097 -0.08194
3.82587 4.76903 -0.21194
4.95587 2.86903 0.03806
4.22587 4.43903 -0.16194
4.17587 3.37903 0.14806
4.24587 3.45903 -0.11194
4.60587 4.23903 -0.33194
4.74587 1.87903 0.15806
4.70587 2.02903 0.27806
5.82587 3.35903 -0.60194
5.02587 3.90903 -0.37194
5.03587 2.92903 -0.13194
5.81587 2.40903 -0.21194
5.38587 3.71903 -0.61194
5.53587 1.34903 -0.21194
5.74587 2.34903 0.06806
6.11587 3.14903 -4.60194
6.61587 1.87903 -0.19194
